# 3D point list with one line of data per point:
#   POINT3D_ID, X, Y, Z, R, G, B, ERROR, TRACK[] as (IMAGE_ID, POINT2D_IDX)
# Number of points: 199, mean track length: 16.884833018972596
13806 28.686643842077807 -14.707725261768218 67.630911014062107 99 102 90 1.7259650471159844 2 1458 75 1109 6 1517 17 1407 29 1571 12 2255 26 1611 22 1663 28 1672 32 1223 33 978 35 921 38 1265 85 1993 95 1428
13818 4.7031465392949308 -0.51411505219117726 5.7332216612804192 31 30 24 0.1029425554240638 6 2444 13 389
13837 1.0219463119318324 -0.21066082818305026 0.57990047216770579 0 0 0 0.2373897561589085 6 1548 7 1861
13838 0.18698750937193104 -0.22927068782155791 0.87510530058947922 0 0 0 0.12584601222572125 20 1597 21 1096
13844 7.0657986372175641 -3.6286694518003926 12.128221261742203 0 0 0 0.38753476819958399 18 2054 22 1069
13855 19.890973614775302 4.7179739143702717 22.020137679001841 127 134 113 0.49870435976740446 7 3092 14 1376 1 3505 13 1173
13867 -0.33101233215518938 -0.43896902511465796 1.9934058103291685 107 108 97 0.90247937673845136 19 1578 14 1548
13870 0.65605736864066155 -0.37846189720507489 1.3482454337001284 0 0 0 0.14999843905845411 15 1651 17 1850
13902 2.3947184239578601 -1.9402379184651182 18.72320712291322 0 0 0 2.2279118422457116 16 2052 40 1156 44 2659
13913 17.455210054004848 -12.667034283776195 37.747637970824542 197 183 167 1.6339638943172798 2 438 5 313 6 282 4 315 9 309
13927 21.333334643600413 -7.0718028884165918 19.508805979896863 44 44 39 1.7771649843576336 2 435 6 2093 4 689
13931 0.36758162261921684 -0.50930364375719861 2.2067131241883016 118 117 109 1.3661497835782082 16 184 4 733
13933 15.54181250550192 9.0155287120054215 26.549778321679291 217 207 195 0.91642144864381236 2 1055 5 922 12 2915 16 1102 4 842 13 1274
13939 3.8238366201591214 7.4474409291780024 35.500859376989048 154 138 134 0.91788321243920834 2 1045 3 3014 5 852 11 2886 14 786 15 1141 16 1668 17 1624 18 1945 4 937 21 2853 8 2882 22 2511 34 1589 27 3082 32 2263 1 3333 31 960 44 1643 45 1996 40 816 41 1251 42 831 13 1033 71 2021 73 1654 77 2204 84 3102 85 3371 86 613 80 624
13952 15.782244626721791 -0.51987797435720273 23.799057289211781 0 0 0 0.67211009833842228 3 1805 15 1216
13957 5.0552974150101564 -2.3659992188691974 9.1518234621611594 0 0 0 2.4507539569339283 3 2316 17 1877
13974 5.0918978341959811 0.47453643016945241 9.9237862147158395 51 51 50 0.066963173336672205 6 2737 4 1627
13982 10.063796107094516 -0.084121481370512161 39.308684695609337 149 146 139 2.5781033140996001 2 956 3 1503 4 751
13995 7.6770715580402831 -9.6254981468193481 31.518892661063944 165 161 147 0.94099723712967376 2 677 4 686 5 757 7 1569 14 721 23 2027 15 840 6 2241 12 1991 11 1659 1 1572 3 1645 8 1708 13 795 9 1505 24 1659
13996 1.1586260933442576 -1.2252050687713369 3.9037952207728432 0 0 0 1.5269570193349762 14 718 17 1149
14022 14.815480213088373 -5.716874970087507 18.39239947881395 114 103 90 1.870873852260025 12 2244 18 2049 13 1683
14024 5.9826328904826482 -5.7585899719107649 21.414466854592291 177 171 155 0.83965062849396221 12 1976 13 1702
14025 3.2902647332076937 -8.3177904907761899 29.448866979015914 50 46 38 2.0637186409258539 4 1376 5 1019 14 1211 23 2242 13 1734 15 1071 16 1227 17 1495 21 1516 20 1559 22 1596 24 1625 20 2179 22 2269 24 2226 25 2248 26 2383 27 2319 19 1108 19 2125 21 2027 30 2225 29 2460 18 1312 25 1605 23 1193 28 1613 26 1553 33 2055 30 1500 27 1200 30 762 36 2024 26 808 33 1527 27 3121 25 2260 30 2223 34 1374 36 1070 32 839 39 1980 31 1161 45 1465 44 1265 22 2368 37 1167 78 825
14032 14.741109807847261 0.86965245538220559 30.542559470067729 0 0 0 1.7172227056227511 4 1135 26 2750 24 2541
14037 7.3459849620205517 -9.8779823175105967 79.925989320845972 42 44 34 1.3439604635037381 35 94 68 78 16 74 28 62 30 63 31 81 32 103 33 64 34 68 36 69 39 88 44 79 45 81 2 41 4 43 5 41 14 45 15 64 17 65 18 111 19 64 20 65 21 74 42 50 41 54 47 61 69 62 13 57 37 107 71 62 73 51 74 47 75 47 76 46 77 49 66 43 65 55 64 45 67 49 63 40 62 46 81 38 84 45 83 50 85 42 78 47 79 47 82 39 80 45 86 47
14039 13.111210262207937 -16.394188419880852 72.420230717823969 76 75 66 1.0351581197615538 35 154 68 144 24 211 27 166 28 143 32 163 33 149 36 150 11 163 15 151 17 157 18 185 19 156 21 155 25 218 1 182 3 176 6 162 7 180 8 170 9 161 10 183 12 167 2 158 5 168 22 204 23 152 26 177 69 151 71 142 70 149 74 135 75 145 76 144 77 148 66 134 65 142 64 138 81 257 83 213 84 159 85 146 78 181 79 149 87 137 82 142 80 144
14049 7.6633302749292245 -3.783520864716607 71.595607346717372 5 13 56 1.0626998497318205 35 358 68 326 28 500 30 473 33 472 34 261 36 361 19 468 20 406 22 369 27 508 29 276 8 222 21 253 1 230 10 296 72 255 70 260 77 573
14055 37.215300466328145 -13.165791649615631 91.146836114467177 145 151 139 1.5138705401021508 46 398 55 1132 56 336 16 474 40 1453 48 352 49 688 50 1314 5 428 10 594 11 387 18 520 38 496 51 715 54 627 34 350 2 374 4 333 7 404 13 1140 32 439 52 1279 31 1096 18 2222 54 1361 69 1437 25 409 71 1046 72 640 74 353 70 370 75 441 66 577 66 1259 65 387 64 388 64 849 77 1648 81 857 83 1059 29 438 85 844 87 397 78 570 79 674 89 418 82 808 92 450 88 653 90 471 98 350 97 347 93 335 12 1041 43 412 6 601 84 857
14057 -5.1010132699057769 7.4482142060550078 37.4100273247657 117 105 95 1.5070137576197873 35 544 68 427 16 748 23 593 24 905 25 641 26 964 27 633 28 616 30 569 33 563 36 568 14 528 15 731 17 713 18 774 19 565 20 580 21 547 22 579 13 590 29 646 34 595 31 589 37 619 38 794 39 603 32 628 45 607 44 591 69 445 36 1695 26 1347 28 1301 30 1686 33 1533 35 1721 24 2022 27 2073 19 2048 71 417 83 489 81 469 84 483 85 582
14065 11.815074036009866 -16.840209468053256 71.674207643041626 181 169 148 0.80507394992655068 35 674 55 406 68 605 16 799 23 707 24 721 27 744 28 718 29 759 30 696 32 772 33 712 34 717 45 899 2 642 4 457 9 465 10 464 11 471 14 425 15 709 18 688 19 677 21 661 22 703 26 1595 3 470 8 467 43 397 6 435 7 462 12 467 1 472 69 600 71 606 72 367 70 368 73 362 74 332 75 341 77 567 64 924 81 714 84 406 83 716 85 697 78 418 79 654 89 385 92 430 80 425
14068 13.870405286967763 -6.077685833304586 66.704068149689789 93 65 35 1.1902262337761518 35 1564 55 708 57 740 61 602 68 636 25 1746 26 2022 27 1552 28 1520 30 1034 32 1134 33 1019 34 1037 36 1386 44 1885 53 553 10 1092 21 1009 43 962 3 2041 18 1238 48 1111 8 1178 1 1929 68 1242 7 1742 11 1590 12 1607 6 1931 7 2358 69 1745 71 733 72 749 70 851 73 1249 44 2327 75 1405 66 805 65 701 64 696 63 700 92 1413
14081 7.2176280713089556 -4.5728644401416396 71.65508018705232 51 59 105 2.4347818936420715 35 1235 61 995 68 912 27 1070 31 1343 32 1111 33 1315 34 1022 36 1454 37 1135 44 1366 45 1304 19 1300 20 1399 21 1298 22 958 40 922 42 899 47 1088 17 1572 15 1319 2 901 5 959 13 387 15 414 16 313 17 402 19 348 20 344 21 241 22 257 27 268 28 277 29 279 33 267 69 875 4 304 5 297 14 296 30 246 36 260 35 283 34 264 31 349 32 278 41 298 45 347 47 283 1 232 44 369 42 307 40 279 71 893 70 926 73 259 73 881 70 282 72 250 74 260 74 800 75 245 75 817 76 249 76 827 77 247 77 853 66 275 66 881 65 855 64 785 67 806 63 270 62 273 62 799 81 264 84 259 84 1153 83 303 83 1094 85 299 85 1912 78 290 78 1072 79 308 79 941 87 276 87 1042 82 285 80 283 81 1972
14082 10.974917545840343 -3.9699249614458294 70.898035269296514 29 44 99 1.9439544299851836 35 1193 68 922 27 1381 33 1321 34 1028 36 1311 37 1140 21 1311 32 1118 8 1439 1 1460 42 938 43 1787 3 1447 9 1387 10 1440 4 983 2 907 5 967 14 998 15 1056 16 1207 17 1077 69 880 55 1031 28 1316 31 1106 41 1116 13 1052 18 1286 19 2203 20 1817 21 1312 26 2769 29 2537 34 1030 27 1380 30 1362 32 1427 33 1323 36 1313 71 921 72 904 70 934 73 852 74 795 74 796 75 822 75 1920 76 831 77 1091 66 880 61 1005 65 879 64 787 63 919 62 759 81 1427 81 1430 84 1104 84 1514 83 1394 83 1606 85 1939 78 1053 79 984 87 1048 87 1618 89 1000 82 1059 80 636 6 1425 1 1458 89 965 7 1822 3 1448 92 2182
14094 32.696372629282408 3.2301337968632069 31.182150060784146 229 224 176 0.65920810317336487 46 1174 55 907 68 1156 41 992 43 1243 44 1099 48 1258 49 881 69 1182 71 862 72 1190 70 1190 73 1109 74 1008 75 1012 76 723 77 725 84 885 83 871 85 861 78 901 79 881 92 987 98 1154 95 1138 97 1373 96 926 100 1138 101 1013 103 955 102 1019
14104 -0.22675414325258075 -7.8621272492137457 69.263670059655539 176 167 150 0.99230446573554099 35 1706 68 1369 23 2446 25 2319 26 2425 32 2447 33 2368 34 2047 36 2283 44 1472 45 1331 15 1379 17 1029 19 1477 20 2345 21 1483 47 1253 41 1248 69 2063 16 1164 39 1072 13 1849 71 1264 81 1066 76 825 77 1874 84 1735 83 2118 85 1900 78 1147 79 1044 82 1758
14108 8.9120675287827602 -11.338299875516956 84.433491162664637 53 52 38 1.704938980040535 35 2200 68 1423 23 2959 27 2441 29 2606 30 1943 31 1393 33 2279 34 978 36 2304 39 2158 44 2349 45 1504 20 2953 26 2592 32 1533 41 1237 28 2375 40 1313 47 1298 1 1060 34 1889 32 794 20 2363 33 2283 34 1546 35 2633 21 2248 36 1582 32 1536 29 1639 72 1334 73 999 75 2247 76 1828 77 1646 71 1250 63 1035 62 811 81 1635 78 1138 79 798 87 1141 82 1689 80 1017
14111 29.996540652580158 7.8133829861296329 28.771036696868595 49 40 32 1.530929383913102 46 2008 68 1443 47 968 51 2358 69 2270 71 2028
14124 25.817898964198683 -6.8974802275781721 73.165102358713654 55 58 45 0.91049646200195788 35 2093 68 1762 24 1981 28 2445 30 1458 33 2199 22 2109 18 2417 73 2193 63 1107 98 1998
14125 15.767498411549015 -6.3184310143685796 67.019845256233651 61 59 55 0.30508985193698546 35 2867 68 1781 30 2254 36 2815
14132 13.302371535120031 -2.9150270864232746 64.560036067556283 147 113 78 1.4422822780811753 35 2473 55 979 68 1841 24 2023 11 1181 1 1931
14138 18.529331948614466 -8.0185427107397391 68.150616187614304 122 113 97 0.87555005153308263 35 2039 46 1827 68 1994 23 2835 25 2983 26 1907 28 1439 29 2700 30 1888 33 1907 34 1586 36 2339 39 2111 47 2042 49 1483 9 3206 18 2383 21 1481 10 2219 22 3024 41 2061 8 2529 7 2456 71 1662 70 1357 74 1113 75 2085 76 1803 77 1156 67 1100 81 2064 84 1738 83 1660 85 1904 87 1506 89 2642 92 1593 82 1752
14146 -3.1844978521321678 -12.037590072773718 74.331445188946006 145 131 119 2.5158695744157615 35 2212 68 2069 71 700
14158 5.9393926038602967 8.3421623222246843 28.388387189772651 217 202 191 2.2949929289047564 46 1565 68 2274 48 1714 40 847 43 1186 45 2868 48 1720 67 728 77 2257 63 745 85 3458 78 2192 81 2788 79 1129 86 554 88 855
14160 10.814963562276743 2.7820188487735704 69.944842044571416 40 41 79 0.76816184188743197 35 2730 55 1160 68 2305 28 2501 30 2001 19 2362 25 3147 26 1732 36 2465 6 2680 21 2373 10 2735 35 2729 1 3430 3 1760 9 1681 11 1847 12 1751 72 1765 75 1881 76 2137 92 2602 87 1892
14162 17.009058563634976 1.5348110801499439 66.605689064428915 41 40 43 1.3777058027016871 35 2341 68 2356 29 2975 30 2468 34 2321 36 2675 21 1643 22 2815 28 2500 49 1415 36 2368 70 2080 74 1313 75 1801 76 2025 75 1806 84 1967 92 2533
14173 31.586338743966987 -4.0844290926401383 62.384703063740972 117 120 109 1.5544229483227507 57 1990 20 1791 68 1212 29 400 41 629 27 390 43 531 47 549 44 663 45 681 39 483 37 490 31 494 32 542 22 375 20 362 21 470 19 461 17 400 40 527 48 526 46 395 49 367 43 1058 49 1551 52 964 58 1004 56 1004 51 522 52 558 58 564 54 533 19 1312 20 955 60 580 60 1019 50 561 59 556 59 1040 53 423 57 398 55 561 61 540 10 419 11 416 9 417 6 431 12 424 7 419 5 728 2 697 4 434 68 479 69 868 71 518 71 1271 72 532 70 464 70 1248 74 1369 75 420 76 494 29 2490 85 570 87 533 89 525 89 927 92 596 82 561 98 530 98 1694 97 455 93 459
14176 2.4445944473508971 -1.308154952913118 10.289141319765699 0 0 0 2.758081430773069 35 1681 55 1490 33 2701
14180 -2.0339414631750676 -1.9345919509000278 12.837234504372354 189 179 167 0.11292309765705086 35 2176 68 1974
14190 14.944815359502799 -13.088534283407323 98.467690583063757 43 44 36 1.5621961893382361 1 330 55 166 69 289 3 416 5 399 7 403 9 380 11 406 12 326 15 453 29 386 35 286 37 350 44 355 47 222 2 322 4 460 10 402 21 368 32 377 16 419 17 385 18 448 27 409 28 364 30 341 33 370 41 267 43 301 35 347 71 228 72 389 70 378 75 359 76 325 77 328 66 232 81 360 85 2213 78 386 87 402 89 404 92 725
14192 10.890388447202842 0.16712211069181665 69.913224381196414 40 53 112 0.43110546210346862 1 259 69 321 6 231
14195 31.580844020991925 7.6639519676322783 31.573401455321854 143 133 123 1.2302929473190742 60 591 68 411 69 417 71 399 50 579 47 498 72 597 74 273 76 378 77 415 84 255 81 302 85 300 79 333 78 339 82 290 92 462 97 361 98 413 96 218 100 428 102 404
14201 31.201543740497122 -5.9508094029483996 49.141797149033479 155 121 81 1.6823165377060465 1 2735 69 611 6 1047 2 698
14204 14.790887939253379 -18.248229659554386 102.20891041693925 92 93 81 0.86152442784061223 1 593 68 675 3 594 6 752 7 573 9 743 10 717 11 734 15 769 21 764 32 771 19 667 16 627 18 699 17 758 44 711 45 724 22 296 20 723 27 860 29 856 28 818 30 804 33 857 34 738 41 760 47 593 43 420 36 791 35 754 71 632 72 639 70 592 73 393 74 439 76 576 77 730 81 561 84 866 83 853 85 553 78 861 79 758 87 687 89 666
14205 3.6387538938276549 -4.1505926199709355 72.114969610678116 22 42 104 0.90335764714329703 36 555 68 766 69 643 24 697 25 797 30 510 32 611 33 504 34 588 39 746 44 658 47 582 16 970 17 815 19 856 21 830 22 568 23 753 14 852 13 854 71 467 75 316 77 496 66 597 62 653 84 565 83 538 85 518
14211 22.222572138546806 -14.724313259315453 105.09900513869576 76 78 66 1.5189432471359585 1 587 36 906 55 702 68 506 69 702 6 459 7 839 8 405 12 1864 24 1857 25 783 27 739 28 744 29 1549 31 481 34 363 35 288 39 1999 44 1469 47 899 19 515 7 2414 9 1864 10 1790 11 1073 17 1826 21 1389 30 1919 16 653 42 1303 41 1956 48 745 18 1008 3 2517 6 2511 8 2480 18 1708 36 1570 71 611 72 1077 70 1791 73 1829 74 637 74 1135 75 445 76 473 77 594 77 1319 66 358 37 1541 62 787 55 2091 81 882 84 620 83 1045 85 543 78 571 78 1783 48 2626 79 436 87 808 89 1828 92 2123 82 414 71 1761
14212 15.216765363323308 -18.53511550655632 102.03982185544704 64 67 55 1.6113582141446063 1 1094 36 981 55 685 68 674 69 706 3 1589 7 1039 8 891 9 1053 10 1679 11 883 12 1073 28 1105 29 1058 30 354 21 1417 43 760 72 709 70 618 75 871 77 957 84 871 83 851 85 555 89 1094 92 420
14216 -4.6687181883323428 8.4380216570527704 28.912937613225015 219 202 196 1.0908381478016469 36 2624 69 766 15 1445 27 2852 29 3057 34 2307 16 2241 17 2273 21 2644 18 1468 71 1654 69 2344
14221 8.8877130022181827 -3.617518726848044 70.73233034755286 1 13 55 0.99836036925521976 1 1957 69 862 3 1790 8 1788 9 2754 11 2023 32 1462 27 2744 28 2648 29 3148 33 1861 35 885 20 1845 22 1452 40 1261 45 2190 71 1533 70 969 72 1470 83 1534 89 1608
14223 18.232384137594039 -7.347660982973041 65.942468743730615 98 93 84 0.8805895242322147 1 1146 36 1032 49 682 69 884 3 1923 6 1609 7 1020 8 1122 9 1966 10 1119 12 1125 25 1099 26 990 27 997 29 777 30 1076 33 1056 35 947 43 1080 48 792 21 1022 22 1042 72 1039 74 784 75 1754 76 650 76 1509 84 1078 85 826 89 930 92 1172
14227 20.39145205852488 -22.57038940715114 107.63029421920558 108 109 99 1.083908841086046 1 1298 36 951 55 1049 69 954 3 1245 10 1004 32 1082 35 927 68 1361 21 1899 5 1081 13 1357 41 1177 23 1043 43 1041 28 1929 71 979 83 1202 81 1258 84 1290 75 887 85 1154 87 1060 82 1531 86 665
14231 12.770993480646801 -21.835033457787375 97.079431424247531 128 129 120 0.89496605070295543 1 1234 36 1013 61 736 68 934 69 990 3 1223 5 788 6 1224 7 805 8 1216 9 1231 10 1238 11 1218 12 1208 15 1126 24 1424 25 1872 26 1036 27 1189 28 982 29 1196 30 993 31 901 32 816 33 1147 34 839 35 911 37 960 38 1142 39 1050 44 991 45 1019 47 822 40 693 2 1016 4 1049 21 1085 14 1056 16 1294 17 1167 18 1387 19 1096 20 1145 23 1174 22 1088 42 768 41 876 71 1006 72 1034 70 977 73 959 74 828 75 846 76 926 77 969 66 868 65 915 64 826 64 819 67 797 67 798 63 718 81 1250 84 1183 83 1527 85 1142 78 1113 87 1096 89 1011 82 1123
14240 27.9037733835677 7.7661294920337012 26.31376659062899 151 141 130 0.3750385836321678 55 1584 69 1057
14242 28.848129946022873 3.5811857676845333 27.026758267450415 94 85 70 0.91339432382507668 49 1344 68 1630 69 1068 43 1299
14243 3.878056636377031 7.5777116806152884 35.823647054286866 144 132 122 2.0931897275113025 1 2260 55 2410 3 3043 6 3188 61 794 11 2917 15 1405 16 2307 18 2523 16 1669 5 1497 4 1303 13 1870 14 1848 71 2378 72 2558 66 749 65 830 64 478 67 882 63 823 62 541 81 3015 87 2176 17 2083
14244 0.38747079385886868 7.625294561610664 34.533565058779388 153 169 148 0.72976967772133849 36 1232 68 1085 69 1107 15 1409 24 2055 25 2034 31 1552 34 1232 37 999 4 1113 14 1133 16 1670 17 1627 19 1873 20 1563 21 1580 22 1702 23 1713 18 1906 39 1607 44 1605 13 953 45 1663 47 1327 41 930 42 1037 71 1130 74 959 75 955 76 1013 77 1058 66 1111 65 653 64 760 63 1013 62 722 81 1649 84 2080 83 1900 85 1346 78 1223 79 1062 82 901
14248 36.538578815906277 -0.028439750982037791 59.79327280170039 22 64 103 0.70033082611160513 1 1542 68 783 6 982 7 953 9 1998 69 1152 70 2229 71 1512
14249 28.158038249190586 0.91679183002091003 50.342897498836933 3 8 7 0.9358349294632865 1 1518 69 1164 6 1500 9 1047 23 990 17 992 20 945 21 1189 25 990 29 2983 65 1339
14251 -8.8150250942302932 2.975505965477232 67.504135075895022 22 19 20 0.64571093528762258 36 1816 69 1186 24 1500 25 1709 26 1741 28 1696 29 1959 30 1130 35 1463 19 1631 20 1787 21 1724 22 1956 23 1694 20 2482 85 1491 84 1198
14255 25.286545537633113 -3.2190463823332061 61.277514069191319 34 45 85 1.9705461515911733 36 1772 55 1380 1 1955 26 1822 27 1965 30 1777 35 1211 54 2020 58 2029 5 1225 12 1974 22 1451 24 2670 28 1810 34 1534 4 1422 46 1668 30 1788 34 2013 73 1927 77 1519 57 1448 63 1089 78 1891 51 1596
14257 16.586998826840563 -4.9358581900695695 66.736106723216821 137 134 115 0.96951963497727256 36 1003 68 1181 69 1247 24 1907 35 709 11 1959 29 2470 12 1906 72 658 78 1860 84 1136 92 1010
14258 13.313392635121771 -4.723233256726175 64.411837136165445 106 75 44 1.3778927026554135 1 1984 69 1271 3 1125 7 1838
14261 8.6910061554003253 -2.8289862346986605 71.109897458026524 6 20 75 1.1604142369459736 1 1497 69 1303 3 1897 7 1348 8 1409 9 1805 10 1185 11 1416 12 1381 15 817 6 1848 21 2729 32 1033 20 2607 34 1282 16 934 18 931 44 943 45 1362 19 1806 29 2913 30 1728 33 2514 41 1086 47 1168 35 2469 36 2486 27 1937 28 2629 71 1615 72 986 70 1131 73 916 74 1914 75 1272 76 1012 77 1622 81 2017 84 1642 83 1565 83 1571 85 2443 78 1002 87 2056
14266 13.969038084839088 -19.17253131042947 99.079671216784888 64 64 54 1.9615792586004506 1 842 69 1333 3 887 6 877 8 779 10 877 11 933 32 873 12 880 28 822 33 699 45 1081 22 1615 35 758 71 1737 72 2039 74 591 75 868 76 668 75 551 77 602 72 2035 84 611 87 667 89 671
14270 11.182986415513076 -16.835667305414454 70.159021637566227 165 154 137 1.0711826398969562 1 2317 36 1967 69 1366 7 2239 8 1517 9 1568 10 1673 11 2324 11 1722 71 1841 75 1120 70 1650 72 1986 79 1595 75 1571 77 961 85 2062
14279 67.027030870851334 -14.001451201855989 73.375560513156628 45 45 35 1.4881167055210986 1 887 69 1512 6 885 8 896 11 1065 9 3171 12 1846 70 678 75 649 85 790 103 1160
14280 28.250101275101581 8.1060086970510064 26.077675114239334 144 134 126 0.55685472822843829 55 1210 69 1525
14281 22.742468436391519 10.222681462884147 25.638747911211066 137 171 132 2.1449122658027435 59 1241 69 1530 60 1202 55 2400 53 899 59 1244
14282 16.610135335608117 3.1112508653601898 62.873939103664696 128 122 113 1.2371941888648434 1 1318 69 1570 6 1949 7 1712 11 1846 65 650
14283 17.20508444377317 2.8430879184989033 62.838018163639283 135 130 118 1.4725476853934829 36 1657 55 2503 69 1576 24 1514 30 1615 35 1506 22 1953 12 1759 10 2072 71 1832 84 2152
14285 6.3201978434145722 -4.2567592803626511 71.069327995123032 116 129 184 1.2459002932764172 36 2217 68 917 69 1597 28 2362 30 1355 32 1032 33 2229 34 1978 35 2415 44 1362 47 1062 19 1302 22 2195 21 1295 27 1900 16 1992 72 1494 73 629 74 1254 76 623 77 805 77 1841 81 765 81 2432 70 1585 69 2528 84 1151 83 1013 85 1129 87 934 87 2137 82 1657
14287 20.294051495292873 3.3818594338539527 52.616782202348041 0 0 0 0.41261479704528919 1 3424 68 369 3 2049 6 2676 7 3032 8 1751 9 2631 12 3010
14293 20.430928073807358 -4.6471233164188179 68.209180948485255 76 73 61 0.62205416249219792 1 2013 69 1703 7 1976 11 2452 10 3137 72 1431 75 765
14296 17.530911839900607 -1.1105850523347323 67.05816942874678 83 74 68 0.78391635024705475 1 1612 55 2061 57 1476 69 1807 6 3038 11 2760 12 1747 22 2175 16 2004 26 2641 28 1873 30 1869 33 2623 46 1725 32 2485 35 1712 48 1599 71 1806 72 1869 76 1381 77 2052
14299 28.919021566322591 -0.1368932724482122 62.941547641954713 33 46 81 1.7498691530587054 1 1564 69 1842 3 1499
14301 40.931600772244344 -0.71514487904216972 35.693181704045067 74 47 13 1.5570818441456411 57 765 61 919 69 1865 68 2496 55 989 68 1257 63 1333 62 1089
14302 18.174768957808556 -1.7088891177811871 62.385017051493989 53 54 51 0.56910144822177278 36 2580 69 1888 29 2887
14304 73.042636921889439 -17.576226469356328 76.736348106906391 54 56 48 1.905075004578261 1 2350 59 2093 60 1499 68 1313 69 1922 3 2150 6 1518 8 2190 9 1894 12 2266 44 1489 50 1458 51 1999 56 1981 58 1441 48 1334 3 2147 10 742 43 1927 45 1079 47 2246 52 1305 8 2138 50 1464 54 1321 56 1350 60 2043 68 1929 69 1334 40 1439 53 1691 59 2092 55 1655 72 2037 70 1303
14306 17.063334550429662 -3.6239819200855989 64.990879879757586 95 84 66 0.85046091294762605 1 3151 36 2514 69 1976 6 3108 7 2807 9 2574 10 2107 24 1888 35 2530 11 2013 22 2236
14308 36.48703409934766 -19.063000188098613 80.4074023404212 159 163 153 1.1122601404113552 1 1257 36 1126 49 1832 60 1995 68 2292 69 1984 3 1237 6 1213 7 1176 8 1206 9 2021 10 1228 11 1242 12 1218 15 1124 25 1200 26 980 27 978 28 1153 29 867 30 813 31 1594 32 1213 33 1125 35 1059 37 1703 39 2295 44 992 47 2233 43 1949 48 2015 50 1476 19 1090 20 1137 16 1292 18 1370 23 1149 2 1371 5 1447 13 1570 24 1165 45 1020 22 824 21 1089 52 2621 45 2471 44 2579 45 2140 70 943 88 973 97 630
14311 21.352375570613258 -20.210975963158173 97.69893007670791 102 102 93 2.0549839651442552 69 2013 1 2056 15 1702 30 822 10 1693 26 1038 27 1018 28 1636 29 1218 9 2083 19 955 21 779 6 1234 3 1639 7 1203 9 1902 36 2004 5 1454 6 1529 12 2250 2 1455 22 814 23 1021 33 809 34 1129 35 762 15 1128 47 1206 38 1236 41 1180 16 1265 18 1393 1 1078 8 849 10 1056 12 879 11 1233 44 1490 10 931 40 1461 43 1981 8 2158 13 1356 27 2153 9 1050 7 1204 48 1046 11 1570 72 997 70 700 62 786 62 1023
14315 15.317687033011357 -7.3298767758614813 67.763622490897404 76 72 61 1.0396446793804914 1 2119 69 2087 3 2097 6 2584 7 2316 8 1936 9 1931 10 1759 11 1115 12 2425 32 1594 31 1420 40 1003 42 1340 72 1513 70 1218 74 1344 77 1244 85 1891 90 1511 92 1610 28 1977
14318 34.975347697600697 -11.909614967238813 80.384839104777797 193 203 197 1.0839363794627563 68 1428 69 2111 37 1538 46 1750 58 1068 50 1791 52 1050 27 1457 22 1618 13 1753
14319 18.089632312011876 -10.622363557205528 68.234261704172511 171 160 141 1.6636011131975164 69 2129 6 2180 9 2125 10 2540 7 2443 3 2186 9 2122
14322 14.650084647452864 -12.789153731310432 103.93317375207867 80 81 71 1.6884007742141511 1 2151 68 2034 69 2142 3 1980 6 2491 7 1917 8 1594 9 1949 11 1613 15 1352 36 2265 61 1449 10 2249 12 2383 21 2257 32 2446 20 2321 17 1415 34 2060 16 1875 27 2513 33 2354 35 2064 45 2305 47 2362 29 2691 28 2405 30 2445 41 2066 2 1524 18 2408 35 2080 11 2472 43 2024 34 2063 43 1685 27 2523 28 2455 3 2520 15 1618 21 2288 17 1977 71 1674 72 1529 70 1348 74 1520 73 1818 75 1711 76 1773 77 1697 66 1275 81 1613 84 2683 83 2130 79 1548 78 1699 85 2172 83 2139 92 1635 89 1796 80 1009 86 1062 81 1618 84 2691
14325 27.949451089226223 9.252641903133334 25.100127964547674 198 182 170 1.2168160062351401 61 1031 69 2221 62 1169 64 1209
14326 24.601354329909388 6.0004576610375571 38.441152923409874 131 131 120 0.61391137756068392 49 2478 69 2249 42 1512 44 2838 45 2887 46 2027 52 2198 54 2515 38 2315
14333 15.775658263672772 1.9445792008099132 66.320331120759803 63 62 67 1.0967424673382806 1 2908 69 2398 3 1728 6 1876 9 1529 12 1660 7 1662 10 1900 23 2690 26 2752 30 1732 35 1466 27 1423 33 1351
14337 29.139199896688321 1.1872646416411883 63.095353593562194 0 11 49 1.4225762648353613 36 1198 1 1516 25 2653 34 937 22 1343 28 1232 23 1411 30 1392 56 1549 48 1265 55 1393 68 2403 70 1569 95 1329 97 830
14349 8.6292607862912014 -2.8492350359131384 72.361392867283286 66 71 89 1.0015344428888957 36 2487 69 2633 27 1938 20 2609 21 2539 35 2460 85 2447 87 2058
14350 21.36937760332324 -13.520224957589457 97.764163982399054 65 68 58 2.0493684940787023 36 2808 55 2100 15 1634 32 2141 47 2348 10 2596 14 1638 18 2396 3 2532 31 1818 44 2367 9 2444 12 2164 16 1795 7 2415 30 1066 36 944 25 2465 48 2056 11 1074 13 1757 18 2775 23 2369 15 1607 21 1388 6 2512 71 1762 61 1196 68 2099 55 799 72 1064 70 1380 73 1835 70 1584 74 1473 74 2215 75 2239 76 2206 66 1253 65 1274 69 2638 63 1299 62 1277 81 1527 84 1703 83 2071 85 2216 79 1397 87 801 92 2121 86 1015 90 1444
14351 22.382101384477085 -14.279317691607776 104.52277066881311 24 27 15 0.96120152638015377 1 2762 69 2639 3 2531 11 2505 12 3199 7 2425 72 1910 75 1724 83 2090 84 2156 85 2112 87 1996 92 2129 86 1054 61 1194
14352 8.8898575429258564 -3.2773568532381319 70.464733792002676 14 28 79 0.41330248759318977 1 3094 69 2643 8 2832 9 2699 11 2799 12 2739 10 1613
14354 26.187645116571129 -8.2473754474457799 72.021371852700256 69 72 62 2.1735772265253313 36 2360 55 1460 57 2326 61 1522 69 2654 1 2179 55 2256 76 1122 74 781 77 878 56 1878 61 720 12 2453 54 1819 58 2167 52 2592 65 941 64 1111 63 932 63 1275 62 1135 62 1155 78 1049 79 1460 81 744 83 743 87 1477 86 476
14355 13.081167578624516 1.492942262645762 71.034273297406457 7 5 4 0.60165045874397438 36 2377 69 2662 28 1970 33 2388 34 2327 8 2680 6 2068 12 2574
14360 32.343503618165386 6.2642585070299157 33.749460680297204 112 104 88 2.1292887953294612 6 1308 8 1296 1 1217 3 1703 7 1167 9 1209 12 1521 69 1542 2 631 6 315 7 360 9 476 12 355 41 351 43 305 47 327 44 411 45 277 42 344 40 321 48 344 52 447 58 463 54 443 56 427 61 440 43 1277 44 1988 41 2172 45 1166 45 2052 40 1277 48 1304 48 1872 52 2225 58 2611 54 2223 58 1753 56 2295 54 1341 56 1447 55 2558 3 1705 6 3005 7 1637 9 1643 12 1520 1 3506 8 3015 14 347 1 352 3 348 8 352 4 341 13 424 68 310 68 1465 68 1466 69 311 69 1487 71 291 71 1421 71 1449 72 408 72 1022 72 2386 70 1471 70 1982 73 1155 73 1610 74 858 74 1844 75 920 75 1204 76 1329 77 1206 66 424 66 838 65 459 64 440 76 984 77 995 63 477 62 444 81 1531 84 1309 83 1345 85 1263 78 1513 79 897 79 1679 89 1469 92 1238 92 1752 82 1329 98 1396 98 1398 95 1205 95 1405 97 1160 97 1905 47 1506 2 1572 65 1110 91 347 96 868 96 1046 97 399 100 328 100 1720 100 1722 101 326 101 1455 101 1824 103 267 103 1387 103 1388 102 317 102 1562 102 1563 99 298 99 864 99 1259 94 302 96 325
14364 25.933987760584618 8.493805522611499 23.916802996584483 127 117 103 1.3091858263996257 41 918 53 1114 57 1518 40 680 43 1130 46 1408 48 2498 55 2291 61 675 68 2518 69 2210 69 2217 55 2281 57 2140 68 2150 71 1360 72 1128 75 2215 76 1851 81 2987 84 2091 83 1321 85 1979 78 2156 79 582 92 1699 99 1294
14367 -4.4610394494455043 8.4175124512776911 28.727129155102258 231 217 208 0.62373322859794444 69 765 71 901 84 1999
14370 36.980081637952395 -0.010084878394334954 32.537550044765283 36 24 12 1.6984543210185976 57 226 55 287 61 289 71 345 68 371 69 921 63 339 57 1058 55 1249 62 340
14372 29.661618595891159 7.5676406803297747 30.697921287561808 151 136 121 1.3265669624957956 41 1422 43 1161 47 1348 44 1542 45 1161 42 1006 40 1193 48 1194 52 2498 58 1595 55 2562 4 1372 6 1373 7 1334 12 1355 1 1431 3 1391 8 1380 9 1374 13 1398 69 1495 53 1538 68 2189 71 1326 72 1849 70 1451 73 1042 66 1217 75 1138 73 2070 64 1217 67 1073 74 2143 81 904 78 879 79 1185 89 1423 92 2485 82 1270 90 1134 88 1099 98 2099 95 1099 97 2011 96 853 96 1226 100 1713 101 1184 103 1947 102 1125 99 859
14374 31.412509557250711 -0.22140711650970629 40.756554666379131 115 109 100 2.3507795568992655 51 1575 58 2591 54 1668 56 1724 60 1708 57 1499 55 1423 49 1855 51 2431 60 2155 44 1270 45 1225 47 1181 47 2715 38 626 39 690 40 631 41 832 42 579 50 1689 41 1920 47 2718 38 1366 40 1681 42 1106 45 2964 59 1510 59 2170 53 1508 53 1509 53 1921 57 1065 55 2025 5 581 5 1252 16 669 18 725 16 1551 2 578 2 1331 13 551 13 1974
14375 29.580109423226602 -1.8721408556989243 39.799043943946423 176 165 146 1.9517513899772856 41 981 47 575 44 972 45 661 39 682 38 712 42 775 40 726 51 711 52 702 58 697 54 700 59 758 53 764 57 719 61 770 11 818 16 721 18 718 9 803 8 562 3 552 6 611 5 796 2 774 13 863 41 2041 47 2208 44 1930 39 1800 40 1265 49 1521 51 2633 52 1964 58 1997 54 1956 56 2060 60 2128 50 2030 59 2272 57 1470 55 1951 10 2837 18 1819 11 2413 1 3595 8 3160 6 3107 7 2682 5 1502 13 1911 92 2346 95 1706
14381 19.59664010810917 8.8373952189304248 22.487024900129274 151 174 144 1.9893646900841322 49 1237 52 981 58 1172 54 1029 40 1310 42 1181 43 1207 44 1602 48 1208 41 1304 47 1378 50 1751 53 1245 59 1751 60 1884 57 1392 55 1581 10 1347 11 1349 9 1344 1 1398 8 1353 3 1359 6 1357 12 1329 7 1311 14 1044 4 1085 13 1408 53 1243 54 1749 59 1243 57 1375 60 1203 52 1753 58 1645 43 1518 48 1738 49 1642 44 2263 10 1908 11 2106 9 2042 1 2253 8 1352 3 2124 6 2109 7 3003 2 484 7 639 1 651 4 502 69 1536 71 2363 72 2488 72 2533 73 2017 70 1305 74 965 74 1423 75 964 75 1158 76 985 76 1982 77 531 77 1036 77 1187 66 1478 65 1181 64 1284 81 1369 83 1326 78 1215 79 1130 87 1261 98 1067 98 2675 92 2800 95 1959 89 1531
14384 27.310970230817944 -6.075288370629381 13.789950712873162 97 84 67 1.8147380309864609 9 836 10 447 1 1304 8 1237 3 754 3 1272 8 776 6 714 12 2377 9 2249 10 1273 6 1739
14386 18.563307954171357 -7.5742165027172437 19.744374869723373 199 192 173 1.6959224949399569 10 1144 11 1158 1 3553 8 2219 3 2281 6 2239 12 3005 7 2162 9 2209
14388 9.7327682882465645 7.826432184099275 24.874043865958136 234 224 213 1.6076480862246594 10 2839 1 3286 8 2998 2 803 5 931 16 1107 22 2694 14 913 25 2964 20 2795 21 2741 23 2815 29 2133 22 2648 27 2978 4 849 13 985 44 861 40 608 41 986 43 1490 45 794 46 1552 48 1744
14389 33.505247001367096 -2.7353533989224177 59.960322480142004 53 47 37 2.1926840058103383 47 1099 59 2163 38 1194 44 1907 45 2277 48 2194 53 992 57 1452 55 1330 44 3079 39 2637 38 1972 31 1648 29 2927 25 2819 26 2896 22 2078 24 3077 23 2309 20 2614 21 2880 19 2530 17 1937 48 2228 46 1721 49 1866 15 1807 20 2034 17 1938 24 2638 25 2837 26 2904 54 2025 56 2030 54 2022 56 2025 60 2097 60 2767 41 1847 39 2043 46 1593 49 1848 50 1957 56 2043 23 2321 19 2527 20 2606 21 2554 22 2234 25 2851 26 2930 29 2920 60 2096 57 2010 59 1574 57 1449 15 1289 17 1515 55 1324 55 1905 61 1410 10 3163 68 1851 14 1798 69 1790 73 2267 74 1675 66 1348 37 1605 65 1229 65 1336 64 1158 63 1317 95 1514 95 1749 87 1615 88 1305 93 1089
14391 12.158382254371714 -2.8889132876377048 71.693847766602033 14 19 53 1.1996276475726173 34 120 68 91 71 122 26 140 37 151 19 113 7 89 42 72 13 159 1 72 10 70 73 66 74 65 75 75 77 62 66 87 65 102 64 84 83 71 79 61 86 66
14392 10.227061568027784 -2.7923781246332218 73.630012657460213 33 50 113 1.1713113782772733 34 222 68 139 71 162 17 231 29 241 30 213 31 260 32 234 37 256 44 282 45 229 47 192 4 201 13 291 14 245 15 238 16 240 18 240 19 214 20 194 75 237 76 136 66 123 67 144 81 211 84 216 83 239 78 213 85 209 79 235 82 196 86 244
14396 3.3538629018193205 0.44963826920594596 73.091437210283843 46 42 33 0.94246176076576105 34 322 68 307 69 197 71 237 17 357 30 391 32 335 33 323 41 202 44 272 45 239 47 744 2 215 13 273 14 284 15 358 16 390 18 421 19 314 20 520 21 299 22 317 24 332 42 208 28 512 36 306 4 205 19 635 21 384 74 230 75 192 76 178 66 193 65 187 81 205 84 330 83 352 85 328 78 253 82 309
14397 41.257286318088973 -7.7492462592739049 59.576004418036746 83 85 71 0.74489696498003111 8 334 69 288 71 240 6 324
14401 23.821821527099019 -12.588209448695586 95.565354445253874 77 78 66 1.5248285463405664 34 880 53 315 55 369 57 435 61 433 68 382 69 399 71 509 25 787 26 846 28 750 29 785 33 728 35 695 46 647 10 590 19 694 21 934 30 1058 18 658 3 1054 6 1085 7 844 9 881 11 592 12 868 72 388 70 490 66 380 36 950 1 3571 11 2508
14403 2.7347849521956551 -11.642490642138512 69.791086630908268 84 79 65 1.99076510203403 34 414 68 1358 71 547 73 392 68 580
14404 26.808432831531732 2.6876359025013308 40.415561781639148 10 47 89 1.7991445027289124 57 908 71 569
14407 14.889438264028319 -15.261211460230735 103.02707661707989 88 97 80 1.1554694254716524 34 763 68 509 71 625 17 883 25 858 27 834 29 846 30 721 32 791 33 733 35 697 36 783 41 763 44 1027 45 1052 19 699 21 781 22 742 3 590 1 591 11 608 6 766 12 605 7 578 9 874 72 636 70 497 73 685 74 434 75 446 76 678 77 852 81 1106 84 1255 83 1054 85 1209 92 452
14412 -3.4951380511810268 7.3214884850595237 37.920388671888617 106 92 85 0.9006652257198976 34 897 68 1082 69 836 71 766 17 1204 26 1345 27 1335 29 1379 31 955 32 1338 37 980 38 1012 39 1189 45 1639 14 710 15 1140 16 1116 18 1477 19 1239 20 1548 21 1243 22 1251 23 1315 24 1949 25 1297 28 1300 44 1155 47 962 65 399 13 581 63 621 83 1314 85 1347 78 1495
14414 14.601765869799785 -13.944222212101804 104.33390804715536 41 44 34 2.6085199260028267 34 747 71 803 17 768 28 1050 31 807 33 1904 35 1691 36 1583 41 904 44 1041 45 712 47 864 2 447 4 459 5 418 10 389 13 500 14 403 15 454 16 647 18 662 21 679 29 1647 20 2366 27 991 40 438 43 411 11 405 9 879 27 1141 32 1534 28 1053 30 1056 33 1041 34 1418 35 974 36 1886 41 1795 21 936 7 1059 12 1024 31 1820 44 2373 45 1501 47 2100 43 805 2 1342 13 1349 14 1322 72 1079 70 1388 73 995 73 1293 68 987 74 876 75 1374 76 476 67 292 9 2409 1 2130 3 1959 6 1181 8 1058 76 1255 75 1377 10 2573 81 402 81 1063 92 1617 89 1779 82 1509 79 1321 85 2212
14415 9.5422556504173972 -3.9658706780607358 70.122253219662326 34 48 103 1.3021083194187049 8 1440 71 914 7 1378 9 1386 10 1438 12 1405 34 1026 20 1820 32 2099 33 2717 36 1459 44 1388 45 2285 21 1767 30 1770 43 1788 72 900 70 932 73 875 26 2812 75 809 76 1145 74 2055 75 1918 77 1847 76 1673 29 2538 30 2588 28 2332 81 1924 84 1515 83 1393 85 1944 87 2139
14417 57.664018403034909 -7.7736671925689018 59.834074661448781 71 71 61 1.1988601099635454 8 2088 68 695 69 736 71 1011 1 1134 3 1070 6 1082 7 1015 12 1046 56 755 59 681 52 936 54 748 58 939 60 674
14419 -7.6297537250328311 -7.8603424228297705 74.34931540801125 58 20 2 0.53978259921511051 34 1784 71 1028 17 1483 25 1185 26 1098 27 1571 28 1420 29 1607 30 1877 31 1382 32 1588 37 1104 38 1458 39 2089 44 1475 45 2296 47 1265 13 928 14 984 15 1381 16 1167 18 1225 19 1006 20 1491 21 1438 22 1401 23 1993 24 1076 81 1158 84 1038 83 1035 85 1064 78 1039 82 1130
14421 15.023814181070614 -14.802057830746643 100.92347032356538 61 63 48 1.0098681212247349 8 1630 34 1006 71 1041 3 1093 7 2451 9 2428 10 1035 11 856 12 862 25 1023 27 1033 28 970 29 1068 30 717 32 1081 33 732 35 965 36 1576 41 858 44 1031 45 1053 47 894 10 1869 22 954 19 698 43 408 72 1067 70 1789 69 2107 73 687 74 747 75 1320 76 817 77 1305 84 1696 87 1458 89 1104 92 705 82 1151
14422 45.144260709727305 -11.581401027566685 81.036148390556306 83 87 72 1.8230329123309481 8 2489 59 1621 61 896 69 1002 71 1047 56 1081 58 1080 43 1689 51 1077 47 1300 21 933 14 1317 22 963 26 1011 24 1505 64 943 70 1021 52 910 98 1573 93 672
14430 32.515171891899541 3.2105948112549005 31.516928050170613 223 219 171 1.0532269022374756 55 1273 68 1152 69 1180 71 1185 72 1188 70 1553 74 1005 75 1042 76 1074 77 800 65 1277 70 1417 72 1360 84 884 85 883 83 869 92 1316 97 1372 100 1669 101 1015 103 1421 102 1018 99 970
14439 30.916227322091572 -14.718477419896633 66.211106280165154 97 101 86 1.7681559154333593 34 1387 55 1855 71 1386 33 2035 37 1425 18 2211 14 1222 20 1608 21 1941 19 1403 64 933
14440 5.7812108425817286 5.4285000245599457 50.596152907348838 193 184 178 2.168966760686315 34 2253 61 1130 68 2180 71 1416 32 1268 41 2177 47 1554 29 2038 31 1459 42 1265 47 2683 5 1315 17 1751 20 2500 22 2905 39 1873 40 1120 4 1355 2 1126 14 1702 15 1936 18 2030 16 2210 34 2205 15 1517 17 2105 18 2599 15 1934 73 1619 74 1153 75 1201 77 1202 65 1453 67 1081 44 1562 45 1577 41 1437 42 845 44 2117 12 1348 73 2203 81 2735 84 2966 85 1853 78 2001 78 2003 79 1367 67 867 87 1170 87 2295 87 2498
14442 4.960103489292405 5.5538425131712517 49.663897789982379 192 183 177 1.3573569126952565 34 1772 61 1133 71 1444 39 1868 44 2208 45 2076 47 1751 40 1214 44 2832 5 1342 18 2604 73 1578 66 964 81 1322 85 2758 78 1618 79 1195
14448 30.261743358777018 0.60917348608024047 59.989308685063818 33 33 33 0.63213212806651109 50 1224 59 1525 68 1669 71 1572 51 1221 52 1188 54 1179 58 1214 56 1573 60 1724
14458 15.631496828265696 -15.392014775997831 102.70441839502327 83 85 70 1.2917889007422743 34 1876 71 1786 17 1428 27 2474 28 2838 29 2642 30 1523 32 2445 35 2223 41 1928 44 2538 47 2359 2 1512 5 1659 18 2216 21 2278 33 1485 36 2290 42 1463 40 1730 10 2547 36 2292 4 1550 11 2169 9 2127 3 2190 1 2671 3 2178 6 2195 8 2470 12 2188 33 2312 6 2193 7 2448 8 2531 9 2128 10 2536 11 3154 12 2187 72 1318 72 2021 69 2102 70 1788 74 1131 75 1506 76 1291 77 854 66 1582 79 1573 83 2072 87 1075 89 1852 82 1682
14460 22.48435049431459 1.406294674161725 62.225004440127542 35 6 8 1.3865529846932401 8 2559 71 1844 1 2821 5 1358 7 3213 34 2331 13 1245 16 2311 28 2489 29 2980 30 3052 31 1503 33 1893 36 2378 37 1028 39 1641 41 1874 19 1618 22 2001 46 963 40 1101 52 1507 1 3584 49 2194 58 1676 70 1574 67 785 76 1360 88 1427 80 757 82 1082
14461 -7.7249992443084601 1.2910873409639636 72.363957636565644 115 82 45 1.2107968618703042 34 1745 68 1549 71 1860 25 2671 27 2606 32 1688 33 1648 39 1750 44 1821 45 1457 47 1603 19 2585 20 2658 23 2678 21 1631 25 2674 24 2599 26 2732 15 1298 16 1519 17 2214 27 2607 18 1769 81 1805 84 2087 83 2018 85 2968 78 1380 69 2395
14462 18.126117489950108 -2.1405848602688113 62.06208898816795 41 46 42 1.5149730292666734 34 1292 53 958 55 1418 57 747 71 1910 17 1335 30 2654 36 2504 39 991 41 786 45 1356 56 1826 15 811 16 718 18 1262 22 2136 22 2227 28 1912 43 989 40 717 46 975 1 3120 46 476 28 2604 72 1480 70 1885 73 1415 75 2266 23 2264 81 2338 83 2059 78 1821 87 2055
14465 -2.0495686051850925 1.9658645172464786 14.831810268354714 215 202 194 0.62058598702819712 34 2246 71 1962
14469 17.988317408320164 7.6794783911035234 31.835577164475691 141 127 111 0.40683790527315106 59 2615 71 2001 53 1569 55 2634 60 2667 95 1997
14470 7.866124613317333 7.5852474766008759 32.811502149065298 223 212 197 1.0013069298542099 8 1345 71 2025
14471 3.8724308844451469 7.5668625714113187 35.653193169881106 214 202 192 0.29353890202846594 34 2306 71 2026 32 2266
14473 18.640261399546514 7.3111266641391595 33.663562110492727 200 186 170 1.8063095820797377 59 2365 61 1116 71 2032 53 2167 64 1081 72 1795 63 987
14475 5.7641785499992668 6.8920613670618645 40.101838205446398 203 193 183 1.9343554334022954 34 2113 61 1121 71 2039 69 2604 84 3095 80 618 86 431 82 1839
14477 1.453563776969516 6.7311261789168197 42.06505639428687 139 127 117 1.147897185814335 34 2122 71 2047 17 2144 32 2217 36 2733 44 2043 2 1324 15 1412 16 2159 18 2485 14 1086 73 1680 66 1188 65 847 64 771 66 1002 63 984 62 701 84 3214 81 2483 85 2793 82 1514 80 1043
14479 5.5228931634042775 4.0530423249172802 61.238124981559281 190 181 172 2.0734230303099355 34 2208 71 2064 27 1843 41 2245 47 2585 22 2970 40 1631 17 1723 18 2556 14 1431 2 1288 4 1167 4 1651 41 1667 47 1830 5 1304 5 1209 16 2189 18 2759 2 1140 84 3229 85 3053 78 1647 79 1774
14481 7.7552030884378311 4.6700019801518753 55.167291908522806 185 176 172 0.52672202680585778 34 2187 71 2082
14482 -4.5435485094996171 1.1183324512224169 28.635077419702018 68 62 48 0.81727533006424979 34 299 71 2092 31 389 37 423
14486 26.760968535175632 5.5832737280435945 40.774508008595973 146 146 134 1.6311863691356574 57 2243 71 2150 60 2316
14488 -3.7533805329054117 8.0073215035790888 30.033365781429961 225 209 202 1.1841334483587405 34 2424 84 2773 83 2790 85 3165 21 2671 14 1405 15 2071 16 2254 29 3042
14489 14.023570621237774 3.3654710451013323 85.137168850505375 25 28 60 0.32785298167869215 34 1718 71 2250 36 2466
14490 21.917659493616309 4.2804662203970452 63.883358909694401 123 117 112 1.1748573904850321 50 1741 55 1158 68 1657 71 2255 52 2122 60 2330 57 964
14491 10.434907620679466 8.4105053148429363 27.294453941842331 236 226 211 0.72452247827941663 8 2991 71 2307 1 3292 7 2937 9 2963
14492 17.832671583891528 8.7977581457507181 27.157143768057306 210 197 181 1.3285769970778916 8 2885 71 2318 7 2981
14503 15.381624338219789 6.8114457091199565 37.861577118893599 209 201 188 1.1413569112197581 57 1101 71 1611 53 1194
14504 0.54086015004786681 2.7480023642317533 16.202957512457939 202 191 184 3.4423087314660048 34 2178 71 2038
14507 16.696112697462706 8.8149634149073286 28.562260146820762 216 202 188 2.5206668578399021 53 2196 71 2319 72 1635
14510 11.54483062658562 9.1009778006687849 26.302901989362127 238 226 214 1.6932795241350211 68 12 69 11 71 13 73 17 66 16 65 11 64 19 67 22 85 16
14512 35.723952265432764 -3.4803140767471987 55.147147082196263 29 64 98 1.6785814736942031 71 26 64 34 66 30 65 25 48 18 37 19 82 33 62 21
14515 15.876829665783609 8.143355593481644 21.432023211439862 211 199 184 1.2016584595833208 72 43 73 44 70 37 74 24 75 17 76 21 77 31 66 37 65 29 64 28 67 44 62 26
14517 17.526703157950198 8.3525554113500977 20.175954953218437 212 200 183 1.371307511559102 68 47 69 52 71 50 72 71 70 78 66 54 65 52 64 57 67 60 74 72
14518 14.178118172627039 8.3433798422408856 22.457169304524818 215 206 193 0.73110807297303315 68 50 69 44 71 78 72 73 70 79 73 78 74 82 75 87 76 78 77 82 66 70 65 81 64 79 67 70 63 57 62 57 81 85 84 88 83 90 78 79 79 80
14524 30.559948265257031 -1.015120644499802 52.968333425291256 46 59 47 1.4960404061011257 69 207 72 196 70 211 9 356 39 274 7 284 8 262 10 230 11 251 23 285 43 242 47 206 48 213 17 226 3 574 25 397 12 561
14536 35.597928907397737 -7.9991365464100497 61.725528561348312 156 149 129 1.4762542482844443 12 390 69 144 72 245 1 289 7 273 9 384 10 399 11 389 13 351 25 248 70 322
14541 13.165083006212205 9.0332418632818765 20.879883418393419 215 205 194 1.0913886866944966 68 215 69 219 71 211 72 292 70 232 73 211 74 205 75 203 76 197 66 293 65 297 67 221 62 173
14559 19.388196132189528 7.1953689598978681 22.713891920362048 203 189 173 1.8965408122267073 68 397 69 446 66 203 64 134 83 359 55 478
14561 33.601204856983479 3.977365329248483 27.992274682016284 103 98 86 1.893213003471744 69 252 71 445 72 462 68 193 71 317 76 387 77 287 66 337 80 310
14562 21.911918501323161 -12.365238729798296 101.46580592500237 37 40 30 1.8082504527920145 12 1804 68 502 69 517 72 514 1 2149 3 2096 8 2517 9 597 11 1045 55 681 7 604 36 1592 32 1543 34 1758 11 594 16 644 35 2081 27 2519 28 2449 30 544 21 513 25 2337 33 1453 26 2560 26 711 34 708 36 685 17 1965 16 1876 70 484 6 2498 30 1930 33 1452 25 2335 5 1674 26 2561 43 1682 11 1610 32 2554 41 2071 81 2051 83 1757 79 1570 92 1987 90 1054 17 1958 89 1882
14563 12.343811779705554 8.1027557458539921 29.540020453855483 221 211 200 1.0420180815920825 61 332 71 530 72 542 66 408 65 400 64 459 67 459 63 322 62 322
14564 15.762213517286675 6.2708031510600879 22.057429716647363 196 182 166 1.2403288252246587 68 584 69 596 70 1087 73 738 74 679 76 502 77 790
14566 36.117940362760145 9.1862203111682295 17.976535943569289 127 127 99 0.63554391635477836 12 634 72 548 1 659 3 660 6 662 7 650 8 637 9 627 10 622 11 659 7 2905 70 526 87 447 89 569 92 492 95 631 96 808 100 881 101 907 103 857 102 866 99 812
14567 4.1728606507724821 8.8015431319604645 24.899955988894774 128 112 101 0.84843154464622106 68 2214 72 567 70 759 71 793 68 546 69 764 73 760 74 660 75 673 66 510 65 551 64 739 67 545 63 446 84 919 83 909 85 930 87 847 89 819 82 630 90 663 80 479 86 375
14568 6.0119840417241557 8.8392028764079118 23.469232780503244 242 224 214 1.3392601659184908 71 549 72 569 68 578 65 419 67 546 66 411 63 443 82 404 80 389 90 501 86 376
14573 17.771809679597027 -5.3404882576575714 22.012366187961664 37 38 26 0.53219003695081923 71 1378 73 673
14575 41.499509750782011 -4.1776363624289452 42.363825061601972 0 0 0 2.5534024846624077 12 1116 61 132 11 1142
14576 12.478989099791862 -2.5708420756798889 29.960210848762653 127 135 125 2.0458273332959762 38 869 71 736 37 842 69 720 56 663 65 700 68 634
14577 37.067423818909539 -9.2553739237717316 81.633262302928387 135 151 149 0.85608960090699182 12 781 54 629 68 699 72 761 7 853 8 883 9 725 46 518 49 693 58 678 74 620 73 980 76 637 84 763 92 897 90 688 98 514 28 714 24 689 25 719 27 702 33 526
14579 14.377519835738541 7.7581404550893183 22.217727245492473 194 183 168 1.2452300890735291 68 2280 71 808 72 769 70 1103 76 1368 77 1188 66 548 65 533 63 1395 81 1726 84 2932 83 2661 84 2927 83 2663 78 1560
14580 27.376209374840382 9.6572376343007189 13.420297148867723 221 201 145 0.97740063369935715 54 1756 72 773 56 1777 58 1646
14583 7.941805348633288 8.3566117936939115 27.756095585639009 223 211 199 1.8221892679483449 61 462 66 383 65 431 64 403 62 315 62 517 63 638 88 608 86 365
14585 32.77261251426917 8.1461682757967839 17.363310625975384 14 12 2 1.5215034361045594 12 937 72 786 3 1352 7 1611 8 2904 9 1667 10 1344 11 1353 1 2257 66 1192 6 512 9 631
14587 12.231589972021254 9.4562329093446245 19.665429908996781 222 210 198 1.3960538777135858 71 796 72 803 73 2150 65 554 66 509 64 543 67 547
14597 26.398598034364809 3.9870401944630429 41.706880520197053 17 32 51 1.3073895457993443 38 573 61 610 72 887 37 410 39 789 41 1004 44 1109 45 772 47 933 46 879 2 621 11 1858 5 908 16 745 4 661 18 1061 1 1015 64 456 62 369
14598 31.243423576319685 2.8514716436304854 32.832100190485214 149 139 118 1.4163628298616693 54 1022 72 893 58 1675 70 1552 9 1523 3 1485 6 1489 7 986 8 1023 12 1444 12 1005 74 727 47 1034 75 1029 76 721 66 657 69 1650 64 959 101 505 100 1137 102 485 99 639
14599 35.023682708152393 8.7602697270658183 18.016289322085292 36 35 27 0.34631678962205559 12 939 72 895 1 663 3 956 6 709 8 957 9 954 10 941
14601 14.291631592930935 -4.0648663609099165 70.925936498237064 101 78 53 0.96867466250646261 12 2674 71 910 72 908 9 2692 10 2120 11 2014 55 1027 69 2031
14606 16.590962002691153 8.267777811439645 28.633438481813897 160 149 134 0.4205190870986999 71 2348 72 1025
14609 17.659235792421853 7.8585352865269877 20.626256707162167 121 166 132 1.850293756380186 68 837 69 773 71 559 72 1101 65 398 64 290 67 709
14610 14.822526229533073 8.4502089750833917 24.861367348275721 208 199 184 1.4137336831441107 71 807 72 1106 65 1030 69 2299
14611 14.902837821929186 8.6228228760953698 25.437567170168442 216 205 190 1.2890635495065919 61 1312 72 1107 60 2546 75 963 63 783
14612 35.099076248876813 8.1254907227104081 16.648901669135533 50 2 0 1.9194079024554729 12 2851 72 1121 1 1213 3 1354 6 2916 7 1297 8 2907 9 2962 11 3107 6 1389 8 1339 9 1038
14615 4.0540932019162552 8.8540378640274682 24.930138782364629 236 221 212 1.7030815684046146 68 1076 69 1551 71 952 72 1137 70 1631 73 1508 74 2076 75 1419 66 725 65 984 64 869 67 1026 63 835 84 2007 84 2010 83 1863 85 1737 87 1701 89 1162 92 1965 90 928 82 1415
14616 0.021796530302848966 8.5272931024066789 26.893341556332732 228 212 203 1.1745979039709902 68 1073 69 1096 71 792 72 1142 63 598 64 878 71 2186 65 985 66 942 84 2017 17 1263 15 1179 16 1718 19 2224 20 2002 22 1245 21 1225 21 2652 24 1279 26 2060 29 1356 23 2333 25 2963 30 2873 33 1927 26 3085 27 2979 28 2039 83 1333 85 1747 82 1472 71 2185
14620 5.9364420674987839 8.2942381026644849 28.616655369652445 132 120 109 1.631469677970236 71 1595 72 1167 73 1100 63 596 61 646 55 1638 62 425
14627 13.304360585011985 9.4610368285565283 21.204931239415096 221 209 197 0.92698308039170896 69 2204 72 1184 71 2192 65 858
14630 34.349045697072206 2.999541065705758 33.634172732043062 112 103 88 0.82882742915204077 68 1143 69 973 72 1232 70 1547 75 1071 74 1803 76 1430 77 1950 81 1849 83 1263 103 1438 100 1822 99 962
14631 26.322050109710954 4.6561730209922558 41.711000758750451 12 23 47 0.95297526033664626 71 1085 72 1236 68 2422
