# 3D point list with one line of data per point:
#   POINT3D_ID, X, Y, Z, R, G, B, ERROR, TRACK[] as (IMAGE_ID, POINT2D_IDX)
# Number of points: 306, mean track length: 8.9557835342395489
13058 -4.9970031780355857 1.8881001046573553 6.953487009041087 206 200 195 0.38166028415630365 15 5447 17 3070 11 3173
7973 4.4200256051445708 1.8220872544798377 7.8698570765207583 208 198 197 0.46074982916749108 26 2128 25 2504 33 2309 32 3241
13060 -3.3061634231547066 -1.7020499236924278 5.3816065797127024 53 47 44 0.76203194894952553 21 2693 1 3371
10703 4.6027902340652025 1.067124452793232 11.681628501518192 85 82 86 0.69604348193773913 28 2609 32 3479 35 2746 36 3842
7977 -1.5521957190871178 1.7854150444104069 7.6218524817027058 237 230 228 0.28182918065484897 27 5652 25 2517 33 1832 32 2253
13064 -2.2688075936857635 1.7595878997704648 7.888762406956352 202 196 191 0.11114639961896911 15 2112 17 3136 1 3159
13069 -0.82658566480462459 1.394962414845341 9.6960501835193362 186 184 185 0.25857258187114157 15 3938 17 3204 3 3072 11 5514 10 3863 12 6657 9 4047 7 5991 2 5937 6 5743 4 4279 8 5730 5 5661
7985 1.1506493855860098 1.6843889888653429 8.3028139327138692 161 155 153 0.35518936452854699 26 4403 25 2564 32 1829 28 4568 29 2674 30 1574 31 2083 35 2383 34 2298 36 1893 38 2205 40 2538 41 1213 37 2035 39 2222
18258 6.7597358277787141 0.81813037762665097 7.0195810711379778 21 116 98 1.3484711666805147 34 4559 41 3839 37 4638 36 3947 39 4821
13072 -6.7053019535762948 1.5256072272817791 9.0360645524981607 193 187 182 0.86402019913415473 15 3028 17 3226 3 3016 1 2445
10715 5.9952654598994082 -0.28598916225916537 11.872606705951277 178 179 160 0.3650523711604664 23 3144 32 3626 31 2548 34 3378
13074 -5.9001518563575157 1.5529444412981057 8.9031053200075991 195 186 180 0.84635293257567523 15 2630 18 1242 17 3249 3 2958 1 2068
10717 -2.3216459561685996 -0.037225599142107046 11.562634578992812 201 201 185 0.67526242626473321 19 2463 20 2720 32 3637 14 2436 4 5268
13077 -6.4458461469066517 1.5584102745024078 8.9066491367492553 122 117 119 0.25960484152930074 15 2652 17 3259 3 3051
7992 4.5147247489755813 1.6480244538843336 8.7511442093814331 183 182 171 1.6272219652292879 20 3509 23 4020 27 4164 28 4497 25 2597 13 3499 16 3414 22 2029 16 3375 33 4541 33 4550 32 4345 32 4376 28 4471 29 3881 30 2370 30 5333 31 2947 31 4907 35 4302 35 4321 36 4478 38 4033 38 4086 40 4292 34 2235 37 4236 39 3863
13079 -6.5685568720583367 1.5470495305045466 8.7699319636359352 188 182 179 1.3594326467006463 15 2651 17 3266 3 3041 1 2075 11 1582 10 1654 12 1716 6 5030 2 2420 4 4343
2924 -0.24475919147665701 1.4650752964835831 9.3506069092110859 92 90 91 1.0972168501494262 20 719 22 4770 23 599 19 653 23 4789 27 4907 16 674 13 638 26 542 26 5002 25 991 27 740 33 861 14 524 21 732 32 829 18 836 18 4749 15 897 17 1030 3 914 3 5316 29 1023 30 936 1 635 11 811 10 1243 12 1271 9 1214 7 1175 2 1053 6 1046 4 1220 8 1276 5 1249
8011 -2.2711689030841775 1.6919168743899613 8.1519945270338372 207 202 195 0.2981706088734028 13 3663 20 3481 22 4287 23 4083 24 5183 27 4330 25 2686 33 4583 14 4592 32 4418 18 4186 15 4251 17 4884
13098 -1.1106159600494252 1.8468652830935786 7.4144300399636549 241 237 231 0.18954817292860135 15 5482 17 3434 3 2845
10741 7.3927512891506675 1.2349992819602016 10.95487249724825 183 182 187 0.64862276809430219 28 3460 32 3826 29 3315 31 3433 34 5791
13103 -6.5431543021704988 1.6245430812655099 8.6015188430352723 88 83 83 0.77573935450780229 15 3191 17 3471 3 3155 1 4877
8017 -5.1771058224156628 1.4390061705785624 9.703297008406679 206 195 188 1.1890505053785085 23 4758 24 2995 25 2715 18 3790
18290 6.7199466128723815 0.74264119309709353 6.8241647888329933 40 120 106 1.5157713565641358 34 4535 41 3980 30 917 31 916 34 935 36 1515 35 1141 38 1595 40 1428 41 1546 37 1435 39 1500 35 4521
8022 -3.2622453711395858 1.3853357743975261 9.7406365500349779 104 98 103 0.38776391141986322 13 901 23 997 27 912 25 2727 33 2667 14 856 21 925 32 2734
18295 7.4261913119149812 1.204699387424975 7.0182904749400992 11 16 26 0.56676535151708729 34 11 35 11 36 11 38 8 40 10 41 12 37 14 39 11
13109 -0.76098492381980254 1.4962995118456075 9.226322655532849 209 207 208 0.35093426637769409 15 1269 17 3539 3 2046 1 2083
8025 -5.1464547133044967 1.3849453840416432 9.5620824847068722 180 173 163 1.8304120618929516 22 3016 24 1560 25 2745 13 1510 20 3681 23 4418 27 2509 27 4669 14 3393 18 2653 18 4075
13112 -7.5666995641475872 1.2387345677193435 10.651350217492132 91 90 93 0.30157998354272841 15 3426 17 3606 3 3577
8032 0.42735136881362129 1.4390766902927741 9.5061136387179488 109 108 111 0.39508352329883106 13 2388 16 1783 19 2168 23 1642 27 2618 25 2762 33 2902
13119 -6.0517939934763518 1.132442587770516 9.9757531464602884 209 186 175 0.37236612245180067 14 2924 16 3019 23 3688 17 3653 19 2878 22 3668 24 4131
8047 -5.3190508778419083 1.3677767415250792 9.8002255807066696 221 212 204 1.3227581067477618 16 3724 19 3575 20 3633 22 4517 23 4348 24 1499 25 2836 14 3508 21 4346 18 4145 3 4086 11 5164 17 4217
13134 -8.4430279634317014 1.0127327527421612 12.113200313930625 142 141 146 0.32616663828659476 15 2190 17 3849 3 2616 1 2656 10 4095 11 4907 12 5749 5 7028
10777 0.078656712903828516 1.5832907636103999 8.7565491881004398 230 225 224 0.37592334768603836 23 6060 24 3374 32 4098 29 3753 30 4322 31 3909
13138 -8.820252290201168 0.84102807917519362 12.365402428002941 82 81 86 0.61801248148309029 15 3690 17 3867 3 1680 1 4229
8058 -4.457075896338015 1.5065244652849317 9.0092554704146988 177 172 171 0.4682220761534639 13 2116 16 1752 19 1874 20 2386 22 2074 23 2089 24 1654 27 1018 25 2884 14 1720 21 2701 18 2767 15 4730 17 3278 3 3056 1 2072
13145 -10.17079111980213 0.18277056643107092 15.614446627260154 74 69 68 1.2766357791426277 15 3726 18 3698 17 3900
10788 6.3067406720646702 1.5271126810387061 9.1888933278528686 210 208 218 1.1900950200317599 28 5127 32 4184 29 3666 30 4347 31 4036 35 2396
13147 -9.4724298332838366 0.6266593330790291 12.910601637870572 55 51 42 0.7139369812077192 15 2258 17 3908 1 2502 11 4683 8 4539
8066 -4.8950455459480997 1.5129419053734949 8.9973256801634296 195 186 185 1.8732048637841212 22 4584 24 3275 27 4762 25 2949 16 1745 20 2396 19 3613 24 1662 14 3595 21 3532 18 4800 17 5696
13153 -0.79172275004861625 1.4198574133562638 9.7964737559469661 107 105 106 0.27472070774415752 15 3974 17 3959 3 3854
13173 -2.1959058475263964 1.3153626096950684 10.412575797352096 114 114 111 0.84213390060470239 15 801 17 4183 3 4118
13174 3.7193164835813541 1.1605387457851668 11.295760663798715 129 124 126 0.77109620069519857 18 6092 17 4185
8091 -4.5767896211970607 1.1551950039248864 11.02376743658977 179 177 175 0.6697878737502081 19 2822 20 3105 22 3614 23 3721 24 3968 27 3806 25 3062 33 3386 14 2827 21 6298 15 3452 17 3609 18 3398 3 3585 1 4031
13178 -4.5826618016394729 1.3283320084544028 9.8988175703117687 156 154 152 0.17253313306426768 15 4016 18 3951 17 4216
8102 -0.83437547578162252 1.1653215222623441 10.804159740126254 146 143 147 1.0812368894104532 27 2384 25 3132 33 1387 29 1295 30 1117 31 1185 35 1397 34 1262 36 1499 41 1552 39 1507
13189 -7.1062736652429956 1.4646988598023274 9.3641935869587467 111 109 110 0.6392060473074882 15 3058 17 4338 3 3835 1 3757
10832 5.1010874364739074 1.5580667352189113 9.0401869363997935 121 114 111 0.44060484462882393 28 5311 32 4480 30 4385
8103 4.9626240375666972 1.032232796825052 11.704513992877944 136 135 138 0.20695731616003407 22 3178 25 3133 32 6087 18 2741
13190 -6.7891079392623244 1.436793507357611 9.4318923400333485 131 126 128 1.4810875607413978 15 3050 17 4349 3 2358 1 3321 11 5381 10 5207 12 6799 6 5945 4 4575 8 5666 5 5891
13217 -2.207785147298098 1.619234084575141 8.5033210884869721 176 171 168 0.18656829575657699 18 4965 17 4762 1 4817
8136 -0.79319947512079236 1.5584564974283412 8.8636383309199243 108 102 107 0.78345586550720481 13 1276 20 145 26 4908 25 3291 16 1213 33 4920 14 1191 32 4308 15 2713 17 3454 3 3132
13223 -5.6012791220667797 1.7644837338130395 7.9304865492792214 247 217 194 0.46293922339766419 15 4270 17 4902 3 4306 11 6017
10866 6.5906878488409388 1.3959459644785155 9.7037329029036457 107 105 115 2.2285352597037336 32 4839 29 1812 28 2008 30 1771 28 4890
8140 -4.8037345077814955 1.1758496376163012 10.122294496969092 180 175 172 1.6310763932645325 20 2982 22 861 23 5920 25 3308 23 932 14 2896
13227 -2.1831252029992516 1.664322621065212 8.2167570449060676 186 182 174 0.044456455759982902 15 4395 17 4940
10870 -0.30029204914026958 1.5332386988353937 8.999681794877807 219 218 216 0.43316021364122942 26 4859 32 4884 29 4031 30 1928 31 3781
8172 4.9738639425489106 1.0429079650560618 11.368278462169272 144 143 146 2.362290702284795 20 3120 27 3335 25 3495 19 4717 22 1133 18 2732 14 2823 24 5767 16 3041 13 5059 21 4546 27 3182
13259 -4.3608727259534312 1.9501945434101633 6.664506661192501 209 203 198 0.94554998405465707 18 5930 17 5500 21 5166 3 5056
8939 4.9081585826988494 1.6193408752434451 8.8476741259404381 126 132 73 0.43739447918726854 25 255 28 213 33 145 32 160 29 190
14026 6.1177394366185727 1.8341149354609949 7.6410156747171181 199 197 192 0.40985076481922522 28 691 29 736 35 734 34 678 36 565 38 586 40 566 41 587 37 564 39 510
11669 -1.9685100794890222 2.0358625778513821 6.3841838237278212 201 194 190 1.9847367969098519 13 2570 14 2345 19 4648 20 2503 21 5074 18 5570 16 2438 21 6295 14 2347 16 2443 20 2502 21 4985 23 3082 15 1013 15 5362 17 5027
2906 -0.16202360289047862 1.6949094334788743 8.2488071312832982 159 152 150 0.91217195720713162 22 680 19 578 16 1307 26 704 33 503 14 572 21 721 18 761 17 1959
23659 -11.085444968215493 0.91012090447036742 9.8638431021729094 26 46 20 1.6364998624598075 12 214 7 1554 2 1598 6 1199 4 978 8 928 5 894
13386 -8.2512407817563655 1.2257285674044271 10.673751124045559 146 144 145 0.52539056215740598 17 679 3 687 1 694 9 562 7 551 2 560 4 541 8 566 5 548
8398 -4.0453124791531847 1.2167676791297135 10.565824089203236 122 120 121 0.28193898642078474 13 3095 20 2878 22 3708 23 3457 24 4086 27 3937 25 4670 21 4063 18 3484 15 3533
13485 -7.6007827188595627 1.501847450581248 9.1628369366313116 131 116 105 0.50743489414962717 17 992 3 1519 1 1379
3005 0.7096339015718145 1.8878157260199204 7.0970314445035081 179 170 166 0.39437218210361291 22 1170 23 1196 24 1208 19 1013 13 1063 26 1230 14 1004 21 1319
23758 -5.6457589671071506 1.8984422028725241 6.8757887581218089 233 232 230 0.16288133510749045 12 2774 7 2761 2 2751 6 6940 4 4151 8 3799 5 2660
2747 -2.0971155569031485 1.8172954219347903 7.5568165744161737 175 169 164 0.9972757744895987 22 5460 23 5538 20 4669 19 4254 27 5561 13 4751 26 5795 14 4255 21 5580 32 5809 18 4519 17 5676
12921 -8.4810732747012718 0.98329380244795805 12.373617111255795 89 88 91 0.36266042992541919 15 1501 17 1654 3 2609 1 2659
3451 1.4749638829434168 1.6542455513593037 8.1507642344421125 182 177 174 2.2307895199000418 22 4214 23 4260 19 3207 15 3954 3 4446
24204 -8.3054967206226067 2.1368504642738548 5.7325244328361542 234 225 223 1.2593919373874203 12 2298 7 6553 2 6400
8943 6.7480864792609969 0.58161200776513311 12.475608776386927 37 54 52 2.0992332431070442 28 73 33 176 32 101 30 61 29 54
19216 -5.5286353639148995 2.0670381387289094 5.9100286840000527 128 130 127 0.29860338271978004 11 2214 10 1880 12 2832 9 3924 7 6751 2 6502 6 3541 4 3213 8 3650 5 3665
14030 13.149539851476584 -5.497198874417994 23.270685054723593 196 187 183 0.59154452976635341 26 603 29 767 30 1314 33 1338 31 1942
8402 -2.6196886368988985 1.210551701511732 10.650616682025024 144 139 141 0.19253381018526308 24 4144 27 3908 25 4682
13489 -7.4022524090099013 1.5219882444166004 9.0454030502709948 172 167 162 0.37493992369557899 17 1273 3 1558 1 993
12951 -1.1879659707899244 1.6901611127110765 8.3962233217052731 197 190 181 0.6366259139070608 15 1115 17 1982 3 3281 1 2912
14060 7.5317466270691282 1.3013209742217233 10.332441444612241 111 112 117 1.1137299822104976 28 846 29 967 30 900 31 880 35 1144 40 1447 41 1478
11703 1.1894553537181365 1.7961818171228787 7.6219656378829326 221 215 210 1.5673829232172105 14 1424 16 1337 18 5875 27 5763 15 5462 17 4625
7883 3.5812815855938211 1.7376624980189295 8.2732599442470409 209 205 202 0.1524256015798896 23 1502 25 1986 18 5795
18156 6.8284216965559699 0.88100247128586151 7.617169918362416 49 154 123 1.1706032824196497 34 2094 35 4576 36 3874 40 3813 41 3825 35 4609 37 3721 39 2975
12970 -1.6075739305214729 1.7752649140813941 7.7834109768752482 209 203 198 0.0010405876810911344 15 1929 17 2175
11722 -0.9291011868155834 2.0041479021268298 6.3950588923530001 221 215 210 1.5667514440654062 20 4404 23 3055 18 6205 13 5011 16 2471 23 2892 13 2560 16 2436 15 5330 17 2284
12429 2.0271949958747557 1.1113219199459339 10.815217343586593 141 139 137 0.99535973613346707 18 4013 15 4069 17 3694
10072 3.0685540979426422 1.7313262712195634 8.0089105328139212 168 162 159 2.2109159273879841 16 415 19 426 23 5550 27 4210 26 4299 33 2445 14 4658 22 4030 23 5585 24 5138 20 4688 22 4075 23 4113 19 4341 27 4421 16 4444 16 4453 13 4723 26 4346 25 2034 25 6089 33 5773 21 3095 32 2134 32 2199 18 1851 28 1681 29 2225 31 2138 35 3228 34 4016 36 4226 38 4155 13 414 40 2513 41 4182 37 4026 39 4176 39 4784
8451 2.1865755475733386 1.6802025048084903 8.4945495533458093 193 188 188 1.9418682027484091 27 1791 25 4943 33 416 14 1858 32 4431 18 509 21 5774 15 516 17 582
13538 -5.2622206716841884 2.033403048841647 6.1362202932504406 200 196 189 1.3762503958621206 17 2807 3 1939 1 1987 11 1991 12 2784 9 4328
11181 -4.8637289717177001 1.6182688190736128 8.5065198532655568 115 110 109 0.77474097356898775 13 1824 20 1314 21 768 22 658 23 733 24 2369 18 818 14 1603 16 1678 19 1637 27 3710 27 682 15 904 17 1010 3 1172 1 1317 11 1163 10 2399 12 1169
9023 3.4126124733041379 1.0618248747531831 11.59786419822599 126 127 131 0.85464323258892727 19 374 22 414 23 403 24 359 27 2318 33 793 13 365 21 603 32 1358 18 3440 17 2492 3 2249 29 1500 30 820 41 1097 35 2742 36 2314 37 974
19296 -1.4140321281793657 1.9262236419072496 6.9548736905734136 227 221 216 0.19805000426258024 11 2001 10 2143 12 3651 9 7955 7 7155 2 6847 6 6878 4 5811 8 6887 5 6875
14110 -0.095458774639112301 1.2796052253607566 10.282404230226087 106 104 105 0.83803589575813242 28 1303 29 1233 30 1293 31 1171 35 2007 34 1218 36 1817 40 1444 41 1479 39 1513
11753 -0.41365294108032963 1.9667349460277961 6.6530819164010415 206 199 200 1.7767925994471117 27 5509 26 5468 25 1761 21 4838 18 5217 23 1767 27 3648 26 5357 25 5942 33 3048 21 2526 15 5000 15 5070 17 2674 17 5130 3 4777
7916 5.1835020542298667 1.5823723812406167 9.0159500356353881 250 240 221 0.55186349303614146 26 2229 25 2116 33 1917 32 1668 29 1195 30 1090
13003 0.4186316694681454 1.0395617857478587 11.825119358016897 128 123 118 0.33412507696152799 15 1468 17 2458 3 1425
10646 5.1337304689626615 1.9139967250520282 7.3629702439130487 131 124 108 1.0242091820377373 28 4676 33 5182 32 2968
9025 4.8384350825250539 1.6293653406224422 8.7370858083853324 115 122 80 0.282770366580673 26 755 33 805 32 623
14112 2.5692288813529487 1.2392649138269543 10.699143941666087 165 162 166 0.50927244944292827 28 2257 29 1244 30 1257 31 1141 35 1317 34 1295 36 1173 38 2939 41 1540 37 2613 39 1494
11755 -1.2874608384161805 2.0172534404897169 6.5068159135110193 196 190 188 1.8669781819979183 22 2723 23 2904 24 2263 19 2017 16 2238 13 4453 21 5010 18 5611 22 1313 23 2744 24 1015 20 2312 19 1488 27 1434 16 2256 13 1605 26 1357 25 1754 14 1489 21 2754 15 5282 17 2726
8484 -3.5272731837345352 1.3990238610110073 9.4731012678124369 184 182 180 0.21559796035896062 13 3904 16 3598 19 3389 20 3996 22 4300 23 4371 24 3063 25 5131 27 4497 14 3439 21 4413 18 3728 15 3873
18757 -9.1018668951766148 -0.88991588942572009 10.359240572210716 192 179 173 0.41455612343027431 1 3850 3 3610 11 5065
13571 -8.2885434294146467 1.2800070423046124 10.519057976875754 94 92 93 0.3263333209222456 17 2463 3 2312 1 1666
3535 2.4161656239307456 1.3015746502259824 10.269962263231715 88 89 93 0.46306982456368107 20 3832 22 3540 23 2590 24 3773 19 3474 16 3539 13 3818 26 2912 25 5871 33 3189 14 3555 21 1864 18 2940 15 3031 17 3234 3 3014
24288 -8.944336385022039 1.9414492264223975 6.5656196907192212 117 50 16 1.7755757735685678 12 672 7 7315 2 7003 7 3875 6 2701 6 6826 4 3169 4 5869 8 6814 5 3752 5 3800
9027 5.5394612440520348 1.7136647902823883 8.3523377429265917 162 156 148 0.47244262637785983 28 1695 33 827 32 955 29 1555 30 1486 31 1431 35 678 35 2346 34 2952 38 2201 40 2569 41 2563 37 2052 39 2231
14114 2.4367629335900087 1.1418719207290386 11.260653590227838 114 113 116 0.24503923914401979 28 1373 29 1254 30 1123 31 1191 35 1411 34 1145 36 1028 38 1469 40 1498 41 1531 37 1508 39 1573
11757 -2.2365229018378132 1.8375775320316208 7.3731289210840334 191 186 184 2.1603702454630893 22 5825 23 5734 24 4902 19 4572 27 5587 13 4701 26 5715 33 2335 21 6376 32 5216 18 6131 22 1586 23 1585 24 4859 20 1347 19 4307 27 2108 16 4792 13 1517 26 1772 25 3685 33 2313 14 4516 21 3146 32 5197 15 5659
7927 5.1064748012221859 1.6265764877440652 9.0727395563076385 132 130 101 1.4210270892946297 26 1497 25 2224 32 1009
13014 -5.2555425839825727 -2.3197666381412922 10.90101887321079 63 59 53 1.6935122920876844 13 2827 14 2559 16 2679 19 2554 17 2550 27 3432 16 2710 19 4657 3 3636 1 3934 11 4903
3544 3.7404038723359068 1.308152162971306 10.258271040912105 79 79 88 0.16922009359819062 20 3846 22 3560 23 4477 24 3806 19 3497 27 3538 16 3631 13 3880 26 3158 25 4392 33 3930 14 3381 21 4219 32 4730 18 4814 15 5232
24297 -4.3973139329082613 1.6184301960091576 8.4196745004927074 232 228 228 0.11655628894669838 12 6938 7 7449 2 7104 6 4986 4 6468 5 4866
9036 2.3715420378840104 1.9043081198189939 7.0603819693145784 203 196 194 1.2471005178503189 23 1225 33 929 13 5176 19 1339 14 654
19309 -1.7392355019573817 2.053181769554747 6.2322512358502307 183 178 177 0.67834851501436566 11 4108 10 2166 12 3175 9 3758 2 6508 8 6269 5 6500
14123 7.3735404887999003 1.3045765290962732 10.517207225730781 136 137 142 0.18133855565853321 28 1379 29 1307 30 2623 31 1284
11766 -4.4846295623835148 1.7102537670380598 8.0427074608085167 206 195 176 1.8643535206550601 16 3325 21 3752 22 3532 24 2787 18 1989 13 1675 14 1750 16 1472 20 3466 22 2178 23 1121 24 2696 18 3174 14 4589 20 3499 23 4133 27 2161 15 2053 15 4403 17 1948 17 5009 3 4275
7931 5.1900212141811348 1.6455458793094266 9.0273639321961436 158 156 124 0.60970850403273624 26 4173 25 2243 33 4247
13018 -0.28764980259514344 1.8862402954296509 7.0999161930202197 214 208 203 1.4063549846450558 15 1616 21 2681 17 2603 3 2463
10661 5.2500026925940029 1.7914769068582523 7.8793121919500066 139 133 127 0.46106251802238873 28 2735 33 2216 32 3200 29 2954 30 4881 31 4481 35 5007 34 5055 36 4158 38 3812 41 4035 37 3895 39 4198
14127 5.7386364601939945 1.3777410046595704 10.229491913877027 202 201 192 1.3633503483119966 33 4752 29 1326 31 1680
11770 -3.7025813147609035 1.9766852636415049 6.486662246697394 199 185 181 2.3740039048336965 13 1723 16 1573 19 1580 22 2672 23 1288 24 5067 14 1428 27 810 18 5365 16 4373 19 2783 20 4321 22 2687 23 1823 24 2194 14 1997 21 5443 15 2362 3 5185 17 5590 1 4647
8499 -2.3398430588531665 1.4434772313254787 9.4151178053021773 94 91 85 0.4544929491970674 26 4626 25 5204 33 4668 32 3073
13586 -5.3769155212849942 2.0024451134057908 6.2584895505205607 161 156 131 0.61068168226081143 17 1675 3 2540 11 4450 10 1420 12 1441 9 1270 7 1231 2 1243 6 1195 4 1190 5 1151
3106 -2.8538577002215764 1.8717557072966255 7.1148338080789246 225 216 212 0.52580292973240139 20 1620 22 1173 23 1202 24 1157 19 1421 27 1292 16 1009 13 1534 26 1246 25 1076 14 1285 21 1686 18 1528 15 1621 17 3436 3 2842 1 1790
23859 -9.8916997022409046 -1.4759989614501257 19.12676828944274 1 9 13 0.055108033673368917 10 4913 7 3311
7937 6.8511202264372297 0.94802198861890974 12.158192500880684 180 179 184 0.64215777872677537 26 3221 25 2285 33 3695 32 3349 28 4232 29 3027 30 3395 31 3569 35 3947 34 3873
13024 -5.1437241872498349 -1.3832140698438653 11.117635548934601 86 80 72 1.6034976239803307 23 2578 17 2660 24 5648
10667 5.7042366457804912 1.8896493490740112 7.7406852140576543 168 162 157 1.6079731363458147 28 1809 32 3264 29 1634
9046 4.5528660548109672 1.8533955572718732 7.6121324108886377 200 193 191 1.8612395243923179 28 689 33 1032 32 963 29 1040 30 1013 35 5196 34 5187 36 4270 41 4785
19319 -7.3837174236270471 2.1403810063187612 5.5418921433941826 156 151 154 0.36267491047896239 11 2090 10 2207 12 2313
14133 7.8294880353169489 1.1817753560691209 10.970852180105727 112 112 109 0.18518014794170876 28 1455 29 1369 30 775
11776 2.0335105007081618 1.5656218563906108 8.8999499014749652 132 130 132 1.7344713070015105 22 4665 23 4019 24 3426 20 3338 19 3113 27 1929 16 3150 13 3279 26 4883 25 4743 33 4386 14 3019 32 4114 18 3798 24 3402 20 3381 13 3423 22 2115 23 1992 25 3357 22 1423 23 885 24 1366 20 1245 19 1715 26 2180 33 2128 14 2953 21 2018 32 1916 28 3251 15 2967 15 4372 17 1947 17 2881 3 2786 3 5261 29 2519 29 3736 30 1966 31 1874 35 2497 34 2333 36 2015 38 2517 40 4406 41 1909 37 1902 39 2542
7396 -3.057587544864488 1.5619718580495743 8.8050487429806061 107 102 105 1.5547189998684867 16 3218 19 3089 20 3294 23 3911 24 3428 27 4801 26 4812 22 3947 23 5892 24 3387 27 4815 26 2166 25 2297 25 4882 33 4942 33 4963 14 3055 14 3131 21 3333 32 4242 32 4266 18 5058 18 5075 17 5201
12483 -2.9055283509942682 1.6594904274140958 8.4931812762328693 193 187 180 1.0068132772983953 18 4973 15 4434 21 3892
10126 3.1048946493210865 1.8575147021200431 7.2949382034848096 178 171 168 0.21456046520347796 22 5766 23 1641 21 2584
8505 -2.9175321131039293 1.426599984841155 9.4546648628887908 100 96 98 0.69193563734802177 19 3430 23 5969 25 5233 33 4050 14 3692 32 2778 18 6250
18778 -6.1424303298769516 1.3227978753976508 9.9783645149748939 218 189 179 0.28128448344265189 21 4524 11 5616 8 5887 5 5836
7940 -6.6388040393987131 0.8513529033176106 12.106233081625458 99 95 85 0.56387893496095287 22 3123 25 2302 24 3451
13027 1.6112705634367084 1.9420657340402627 6.9197768098069172 194 185 177 0.38416883119437134 18 1677 17 2690
10670 3.9006655710864826 1.8849488240817271 7.3979091296157193 159 150 146 1.3839784224728167 33 3281 32 3272 29 4631
3557 2.645979151132575 1.3610109164220137 10.171569930670284 100 97 101 1.2035029936400918 22 4439 23 4560 24 3903 19 3536 27 3712 13 3739 26 2644 26 4674 25 2800 33 2682 33 3948 21 1914 18 2813 15 2632 17 3982 3 4887 29 3442 31 4072 30 4583
24310 -8.9196062996771275 1.3097747012745853 8.5287989432547935 103 97 92 0.72285952760797056 12 801 9 846 7 726 10 1258 12 4704 2 758 6 693 4 786 8 819 5 782
9049 0.82362983300497761 1.5050739674638773 9.1539010689902653 156 153 157 0.71068156953668116 23 950 28 1564 33 1054 21 1028 32 1149 18 1767 15 1911 17 2013 3 2004 29 1738 31 853 1 1268 34 870 38 1344 41 1559 37 1542 39 1601
14136 7.7578872169162212 1.2498664855595674 10.730701751591582 102 103 108 0.32744365616484822 28 1479 29 1385 30 1217 31 1163
11779 -5.826725262762201 1.1744538596209309 11.18864578606572 161 155 150 1.2740746722143295 20 3107 18 3650 20 3101 22 3605 23 3714 25 3047 14 2803 15 3695 17 3618 3 3555 1 4020
7399 1.6724665037125526 1.9361724858984579 6.9195966309250219 251 246 239 1.273781317853246 23 833 24 694 20 1181 19 1105 16 699 26 789 22 1916 23 1958 24 2299 20 4193 19 1563 27 3166 16 2127 13 1726 25 972 33 973 14 1125 14 1548 21 1536 21 2532 18 1680 15 964 17 2738
12486 -0.040882723699250022 1.744481853113377 7.8965377213072001 168 162 155 0.34097917676018485 18 4458 15 4466 17 4427 3 4330
10129 0.49191325358521354 2.0197202857775922 6.8191027779558642 227 220 218 0.6368899623248151 22 5178 27 5469 21 2755 18 5529
8508 4.1569288154166761 1.3512540485411599 10.014419876227871 159 157 165 1.4947828010879973 26 4768 25 5239 33 4781 32 4610 32 4761 28 3643 28 3343
13595 -8.6194579578188186 0.96506251339221438 12.358093904155835 96 95 99 0.10851137178655622 17 2912 3 2607 1 4188
11238 -5.3134497185260567 1.401265831589229 9.6868065351658093 208 199 193 1.272066696861613 13 2474 14 662 16 2184 19 2173 21 633 23 2614 18 1297 14 2027 20 1874 21 4289 22 2693 24 1562 27 659 16 534 20 672 22 707 24 551 15 1140 17 1248 3 2347 1 2229 11 4076 9 2300 7 2200 2 2207 4 2121 5 2017
7943 6.5043564629786914 -1.2375314028248234 11.810543228857416 174 170 153 2.2818084220334627 28 1532 25 2346 34 2459
13030 -4.3258297100661034 2.0443339505691887 5.9897525615916054 218 212 207 0.70043392472847166 15 3158 17 2724 11 2218 10 5125
10673 0.75438894489592079 1.8804623092826456 7.2860699559848214 215 208 206 0.71014092781991178 25 3610 28 1895 32 3296 33 3240 29 2948
9052 6.5795500293700613 1.3261037344631672 10.270420596692766 125 123 131 0.48281544100575324 28 842 33 1092 29 1342
19325 -6.9499997957738184 2.075011604598592 5.8425006812531306 229 225 219 0.37990242338674513 11 2153 10 2227 12 2417 9 2113 7 2003 2 1992 6 1911 4 1935 8 1921 5 1925
14139 7.8408474625493252 1.2320827343145599 10.878608002370331 172 172 177 0.52934569249521168 28 1493 29 1393 30 2700 31 2503
11782 -3.6222933126835368 1.7454600513409813 7.781874722015182 192 185 182 1.9332244478789937 16 4563 19 4390 20 4764 22 3492 24 5825 13 2051 25 2448 14 4323 21 2951 18 2058 23 1509 27 2238 26 1602 13 2024 16 1431 19 1764 20 1446 22 2225 24 2503 25 2018 14 1790 21 2838 15 2107 17 2894 3 3269 3 4230
8000 -3.5589838676865795 1.9129145027596433 6.8891676141334983 179 170 166 0.86988769988242198 13 4306 22 4875 24 4468 25 2632 27 1183 14 3938 18 5756 3 1341
13087 1.3417547454961904 1.2984358240457854 10.069172914058374 119 118 123 0.9134515210636639 15 3759 17 3343 3 3213 1 3828
3617 1.4823222017054192 1.4452305636210894 9.4600962763239966 205 204 209 0.55492966361109564 20 4069 22 4415 23 4710 24 3012 19 3687 27 4566 13 4054 25 5493 14 3725 21 3273 32 2042 18 4733 17 3507 3 3147 30 4760 31 4297 35 4678
24370 -9.5327292526344678 -0.77944370967574339 6.2183758457335818 224 248 203 0.17390836810901852 9 3481 7 4457 2 3098 6 4292 4 3809 8 3948 5 3952
9109 5.2102571996649276 1.8542689830163062 7.6452613651533117 162 156 149 0.96783907052064611 28 2987 33 1460 32 1588 29 2952 30 1622
19382 -1.8090517424254944 1.5657541104000534 8.7818851841362431 127 121 116 1.218006984120368 11 1162 10 2371 12 1165 9 2287 2 2302 6 2222 7 5091 2 4645 4 2206 8 2359 5 2179 5 2368 4 3409
14196 -0.22698061494123384 1.436332128640107 9.447415268873474 152 150 151 0.30702798012301968 28 2277 33 858 29 1790 30 1782
11839 -5.9077391146749472 -2.1005031415459134 10.571418357034641 35 33 31 0.82562919991581329 13 36 14 34 19 35 20 38 15 50 16 44 21 47 23 35 27 33 22 33 24 31 17 53 3 84 1 85 18 51
8568 -3.1159645437669297 1.493432412810368 9.3637247930294514 207 201 199 0.27908474232527553 16 1776 25 5521 19 1503 20 1834 22 2087 24 935 21 1792
18841 -8.9142765752871451 -1.1317012500280321 10.297337205063185 20 21 24 0.44607512812321148 1 53 12 52
13655 -6.5259722154002695 1.6317188935342988 8.3551553706399275 166 161 158 0.21810493478802803 17 5243 3 3195 1 4918
14198 1.8963176288999875 1.4156358184119526 9.7373657445448085 188 189 180 1.2103484417691941 28 868 29 1800 30 1750 31 1673 34 1813 41 1708 36 1623 38 2388 40 1684 37 1583 39 1639 39 2387
8570 -4.5369671278490218 1.4380506359166794 9.1346729443805881 133 128 127 1.2463361200481016 13 3729 20 4041 25 5534 14 3713
18843 -8.5369748134017041 1.3885474307802372 9.7650251502240355 139 137 134 1.1231761971021412 11 37 10 45 12 30 9 30 7 33 2 29 4 32 8 24 5 31
11300 -4.1982818462675811 1.7432251715057085 7.7290208858901641 182 175 173 1.2394691452591626 13 2247 14 4387 19 2075 20 970 21 1730 22 1498 23 1508 24 2238 18 1879 16 1875 27 1652 16 4629 19 4352 15 2032 17 1970 3 2697
8005 -1.6696295662520755 1.673290882358631 7.8929254591934468 202 192 188 1.9386152539950507 16 1901 27 2165 25 2659 19 1863 20 1281 23 2169 14 1756 14 1762
13092 1.1999903067672517 1.492826313529237 9.2495531892511806 123 120 126 0.35394218808197636 15 4970 17 3387 3 3076
9114 4.2778480782105968 1.851755190775084 7.6501533648264237 208 201 199 1.2615050542937822 25 1040 33 1472 32 3167 30 2942
19387 -3.4532245465172089 1.6172510887336666 8.5244065942750655 186 180 175 0.28472517703315109 11 1347 10 2381 9 1137 7 1070 2 1123 6 1037 4 1283
14201 7.4910994372923811 1.3944489179598778 9.9149763950404779 108 108 116 0.31524028190210912 28 2007 29 1811 30 2169 31 2029 35 2062 34 2133 36 1659 38 2467 40 1661 41 1719 37 1858 39 2439
14202 5.7556129047354103 1.3968196142149059 9.8131570652927387 126 125 126 0.42655417409377788 28 3094 29 1820 30 2150 31 2597 35 2063 34 2150 36 1622 38 2406 40 1667 37 1725 39 2402
3627 2.3008193053600903 1.4434506669235541 9.5626607359971896 235 231 238 0.39395637792726396 20 4064 22 4401 23 4766 24 2977 19 3702 27 4484 16 3773 13 4136 26 4591 25 2767 14 3729 21 3230 32 4929 28 5033 18 5048 15 2789 17 4817 3 3290 29 3917
24380 -4.9096450594141254 1.7086853684316146 8.0844797327098181 146 134 122 0.099832042411871061 9 5457 7 5642 2 5339 6 5356 4 6248 8 5055 5 5325
14107 8.1002570510864977 1.1540077409318583 11.572512665076227 69 43 29 0.38888106885576534 28 2224 29 1205 30 1131
9119 0.048108762908720827 1.8212479464991342 7.542467589199422 202 195 193 0.44537455891724564 25 1464 33 1514 32 1427 30 3223
19392 -3.2123894429047337 1.5702240075989136 8.7260034478231887 113 106 104 0.24952097095476974 11 1622 10 2392 12 1902 9 2790 7 2335 2 2347 6 4923 4 6366 8 2372 5 2272
14206 6.0058941286217218 2.3200899877642676 12.713880023763428 112 114 82 2.2680409999637301 18 511 29 1834
9127 5.0934745601183495 1.8105625501852369 7.8450609302275778 212 205 203 0.86278122943297897 26 1551 33 1560 32 1409 28 1113 29 1730 30 1626 31 1497 34 3219
14214 1.9036553652272261 1.547491096180905 9.0071702189501615 141 139 137 0.4779847720052155 28 5233 29 1899 30 1865 31 1768 35 2413 34 2362 38 2581 41 2020
14217 -0.83068859470582368 1.6056890845853218 8.7498770034004334 130 127 131 0.38318621535052072 28 1223 29 1924 30 848
14231 6.3647552972424091 1.1549652754367088 11.185392544385465 146 147 152 0.65551719631030925 28 2233 29 2031 31 3296 35 496 37 440
8036 5.0350669378394954 1.3716390639460776 9.9555528649228222 204 209 214 1.2449207039926218 22 4566 23 4351 25 2780 32 4637 28 2307 29 3959 29 4647
13123 -2.1926350687485683 1.2716824486718461 10.641925161685618 125 123 122 0.17250862387230628 15 4075 17 3692 3 5253
9145 5.5256211449715043 1.6128464425004019 8.9129054922950157 161 157 141 1.4788531170514811 26 2203 33 1733 29 1874 31 4916 35 2484 36 830 40 821
14232 7.8524813951006696 1.1345669240792584 11.467520035343426 160 155 157 0.58299352953236927 28 2219 29 2037 30 5064 32 1289 31 3382 35 3744 34 3674 36 3672
9146 5.6925288598984434 1.5613152453983445 9.3038609404048813 128 126 123 0.59772533598530375 26 2157 33 1752 32 1649
14233 6.9930618302701602 1.1242122798022787 11.208384890248308 138 139 142 1.183157591287167 28 2218 29 2038 30 2442 31 3336 35 2689 34 2915 36 1749 41 3684 39 2712
8038 -5.4078044971060484 1.3617673663392591 9.8819478046308458 120 114 106 0.58462625261034462 13 763 16 738 19 862 20 842 22 989 23 2649 24 943 27 945 25 2811 14 2236 21 980 18 1116 15 1226 17 1332 3 1636 1 3414 11 5101
13125 2.8155112183538904 1.0434567739510081 11.604868641317172 161 156 153 0.15228915099246479 15 5260 17 3728 3 2223
10768 7.0612997817307148 1.1520294108224243 11.120461425807031 216 214 219 1.4703499011844214 28 3629 33 2540 32 4012 30 3935 30 3946 31 3298 31 3344 35 3649 34 3845 36 4969
9147 5.5722209903001696 1.5063010818996321 9.1864325086928016 125 123 122 1.1305468269104 26 4791 33 1757 32 1895 30 1860 29 2357 31 1279 34 1377 41 1574
19420 -7.8155550984653335 1.8918599693882552 6.9643251835917299 152 152 121 0.75474428456996046 11 6154 10 2459 9 5872
14234 -2.3676394557385176 1.2345978305756262 10.411424404059035 114 112 110 0.5860005596720721 28 1352 32 2587 33 2548 29 2045
11877 -0.85852511250228392 0.035303632527857794 1.3961916117789404 196 198 183 0.85465894029132716 14 2457 15 196
9148 5.35544595763586 1.5581268518205729 9.0734927922283859 118 114 116 0.72715389201518843 26 1482 33 1768 32 1684 30 1836 31 862 35 1160 36 1553 40 1305 41 3520 36 3499 39 1597
19421 -3.5263814976588441 1.8323461542101771 7.3027648058357828 219 213 208 0.35616772262031426 11 2466 10 2464 12 3301 9 5842 7 6864 2 6776 6 6580 8 6513 5 6608
14235 8.0327755781180343 1.103717217436929 11.428160087620999 169 124 104 0.30837919448101309 28 2574 29 2049 30 2453
13694 -3.2120567207986039 2.0707532547442087 5.9755407612536553 242 236 231 0.45106020202900637 17 1803 3 3414 1 1922 11 4120 10 7114 9 7072
8040 -4.2640416990653085 1.3302124111637958 10.026863767648232 142 140 141 0.43477001475844318 13 2982 20 3805 22 2630 23 4456 27 3696 25 2816 33 3799 18 3950 17 4215 15 4020 3 4090
13127 -6.9774367777925805 1.3377791379782087 10.086715961020769 174 172 173 0.31976368602881161 15 3466 17 3747 3 3970 1 3498
10770 7.1894225307198374 1.1491305820316531 11.26632644962346 104 101 105 1.0233037740410089 28 2227 33 3980 32 4031 29 2030 30 3912 31 3312 35 2566 34 2912 40 3828 38 3143
14236 0.54416637270177703 1.2011326466766561 10.710729513797535 102 99 103 0.54720399404641717 33 3984 29 2053 30 2462 31 2401 35 2877 34 3761 36 3201 38 1761 40 2981 41 3845 37 3856 39 3141
7499 1.5394814454390269 1.9936438743343439 6.81446889331826 188 178 176 2.23895115316216 22 5334 23 5368 19 4227 24 5434 27 5501 22 5186 24 5301 16 4278 16 4293 13 4446 26 5374 24 5415 27 5398 13 5023 21 5024 21 6208 18 5593 15 5344 17 5102
12586 -4.124054881881273 2.0490137462548264 6.0571870413913604 204 198 193 1.0341913180413433 18 5427 15 5358 3 4722
10229 -2.2017568836961936 1.438590878209983 9.6387651094407492 150 145 144 2.1995805469030296 19 3440 20 3975 23 5965 25 5234 21 4246 22 4305 24 3068 19 3450 13 5047 26 4548 32 4605
3116 -3.2361790980683338 1.871074631669609 7.1798142974288979 162 156 151 0.57902200205602705 20 1392 22 1658 23 1608 24 2055 19 1451 27 3062 16 1398 13 1549 26 1789 25 1626 14 1276 21 3067 18 2257 15 2495 17 4571 3 5065 11 8004
23869 -9.147662185075168 0.71765811905659871 6.4012083605959091 38 58 34 0.23992572169796084 9 3841 7 3351 2 4288 6 4632 4 4185 8 3228 5 5633 8 5575
13596 -8.0587688221176847 0.98011290316351418 12.360504974918213 128 127 132 0.42742949816996739 17 2192 3 2612 1 4194
8608 -3.6579748388425335 1.8577310244676639 6.9265473317200126 207 197 198 0.79911725047934035 19 3938 20 4201 24 5674 25 5766 16 4122 23 5117 21 5904
18881 -8.2642141038160375 1.159451888437917 11.378061242882819 105 104 107 0.32506361479752327 11 316 10 429 12 567
13695 -5.1285789862588453 2.1052519768466254 5.8638203010979169 189 185 179 1.1041389994727424 17 2263 3 3420 1 2905
9150 -2.1216973310522556 1.5882443610605632 8.6034160757475302 189 184 183 0.72906493282111873 25 1860 33 1790 32 999 28 2103
14237 0.084914551616616374 1.2132225758325739 10.782584954070398 108 108 108 0.90083840954253103 28 2581 29 2054 30 1370 31 2397 35 1335 34 1090 36 3965 34 3782 40 3764 37 3845
11880 -4.5485194621082492 1.6981680627131599 8.0525331682846133 147 139 120 0.34899270610410799 16 255 21 341 22 469 23 231 15 207 13 332 14 575 19 577 27 469 20 607 24 734 17 298 3 556
7500 3.987187315103788 1.6527109119733527 8.8096332733166918 71 69 53 2.0391207712738124 22 3790 24 3184 27 3990 26 4068 23 3829 24 3246 23 2030 24 2671 20 3545 19 3260 27 4195 16 3333 13 3640 26 3964 14 3153 21 5857 18 4638 35 4228 35 5576 34 5527 34 5604 36 4526
12587 -4.8785406812652212 1.8822654279631561 7.1724603329146026 203 199 193 0.86803344607857458 18 5796 15 5363 17 4645 3 4376
10230 1.3056674338840486 1.3986220305793118 9.7630149902529251 106 108 115 1.7661372809139484 13 307 25 426 21 1797 27 2518 25 5304 32 4622 18 377 18 2791 15 396 15 4711 17 3485 3 528 3 4523
8609 -2.8677429484130887 1.8514424192231305 6.8252837502235932 181 174 172 1.7180746285377406 22 5061 25 5769 23 5079 21 5995 18 5659
18882 -6.6864126077022235 0.9962750576970486 10.224711134574076 102 90 88 0.64278313188022951 17 329 10 430 12 569
13696 -9.5053517258302147 1.1007357923510004 12.003886525736933 105 102 100 0.43590808988085933 17 3892 3 3447 1 4214
11339 -4.3300977029745837 1.8853896683098887 7.0095800135273949 212 205 203 1.0771485682231785 13 4989 16 4119 21 3023 22 1861 24 2101 18 2248 15 2508 17 4580 3 2833 1 2806
8042 4.3680622742272268 1.3295320016705801 10.213364090803402 132 130 138 0.43990929630010206 27 3715 25 2820 33 3940 21 1794 32 2675 18 4889
13129 -7.6512851201019965 1.3567959406503007 10.214292958140495 101 101 101 0.51957456250328871 15 3501 17 3763 3 3974
10772 4.3039910284704055 1.1550801723567992 11.070666952366063 112 109 113 0.27236256907443784 25 4446 28 3565 32 4072
9151 5.1721942704052788 1.7485359619026799 8.2599245605322906 222 216 211 0.79311975832670434 26 1604 28 1739 33 1794 32 1472
19424 -5.6677969926084666 1.8662986388266698 7.0208431563182936 139 134 133 0.43906576724582391 11 2473 10 2468 12 2592 9 7655 7 6948 2 6623 6 6602 4 5571 8 6593 5 6656
14238 -1.7648607613776872 1.3237081825300936 10.59725435011287 146 144 142 1.3458653473130553 28 3623 29 2056 30 3590
11881 -5.3146432267319783 1.7304159703479398 7.9314906748829381 166 156 132 0.75793988383349165 18 229 15 209 17 297 3 295 1 571 11 523 10 575 12 2498 9 505
7501 -1.6929701956062673 1.4673155127058815 9.3157145909355066 186 181 183 1.7283490561586508 20 3879 22 4767 23 4804 27 2615 26 2754 13 3766 16 3933 27 4525 26 4577 25 2982 25 3526 33 1265 28 2000 14 3720 21 3545 21 3556 32 1125 32 4957 28 3727 15 2687 29 1826
17774 -44.08470172355694 7.1571341499116619 98.080052048268243 195 197 182 0.59391424408709814 26 3301 36 4877 37 4528
10231 -0.92568177850474054 1.818295282200455 7.3452470224731252 209 202 200 2.1019123006440825 22 5529 24 4882 16 4676 14 4627 21 3143 14 1389 25 3683 18 5870 18 5871 15 5472 15 5487
8610 -1.7645681615316926 1.9025822003909059 7.0489239583715282 187 176 175 0.45276415580724799 13 4308 19 3915 23 5070 27 5144 25 5770 32 5442
13697 -8.7332063696498405 0.87368654862028305 12.616233896519004 123 122 125 1.297404228239418 17 3865 3 3460 1 2680
13130 -5.1945977374170678 -2.464279474505461 10.834428560527824 122 120 118 0.28759205949117084 21 4215 17 3813 13 2863 16 4844 23 3321 14 2597 27 3416 24 5619
10773 7.4050265238109443 1.1097972409681482 11.41325055805134 105 102 106 1.9824962664203605 28 1357 32 4079 29 1286 30 1112 30 2452 31 1288 31 2406 35 2644 35 2683 34 1383 34 2948 36 2282 36 2298 38 1746 40 1685 41 1772 37 2493 39 1719
9152 5.3107748749290762 1.7518899129157903 8.3851778959281944 176 170 165 1.1331649581768646 26 1612 33 1800 32 1479
19425 -5.1621738955849628 1.8642322464572598 7.1199779205053799 227 223 217 0.38527484792855721 11 2474 10 2470 9 2016 7 2696 2 2690 6 1882 8 1858 5 1843
14239 6.2984018592656605 1.209734654962773 10.920764272121682 158 159 162 0.52201232872477199 28 2138 29 2057 30 2655 31 2351 35 2884 34 5237
11882 -2.3067171204127295 1.7688225431950955 7.5211624530904801 207 203 197 1.473954704473081 21 5518 23 5406 15 221 13 4646 14 4218 20 4608 13 4746 3 136
9154 4.8084206236277032 1.7322700226802232 8.28854227995439 204 198 193 0.72082929033895515 26 2434 33 1806 32 1322
14241 -1.1760487550056822 1.1781792640657898 10.817604698895135 95 93 94 0.82989486766841547 28 2649 32 3877 33 3489 29 2086 30 3983
14242 0.94224510807685191 1.1367221815572519 11.039586351300681 163 162 165 0.50923429169246148 28 4114 29 2110 30 3807 31 3614 35 3736
9157 0.20650998873927753 1.7944507622582395 7.6649637503997115 206 199 197 0.61774321187827086 25 1647 33 1821 32 2270 28 1730 30 4820 31 4510
19430 -1.9047486706811985 1.8551446067201405 7.107609803828117 180 175 172 0.47284419852143078 11 2384 10 2478 12 2206 9 2872 7 7275 8 6970 5 7012
14244 7.9198985452390014 1.070382797462389 11.563321543746948 127 118 105 0.47853900898204849 28 2538 29 2135 30 3831 31 3615
8049 2.3008596766718079 1.5543482588293092 8.9995165356148252 112 111 116 0.40781286611733425 27 4833 28 3241 25 2844 32 1889 29 2364 30 1990 31 3988
13136 -8.553617445471696 0.93723870910772034 12.688756148655276 85 84 87 0.48205434503452271 15 2186 17 3858 3 2624 1 2689
9158 4.9754033105813651 1.7770726565852806 8.0594091161004933 204 197 195 0.60253091905473055 26 1528 33 1822 32 951 28 642 29 813
14245 6.1211610357710269 1.6993532611407061 8.3532614047242042 209 204 203 0.29408467650953735 28 4445 29 2157 31 2158 30 5447 35 2329 34 2258 36 4735 38 4185 40 4447 41 4590 37 4498 39 4019
11888 -4.4447875192659829 1.8909694696721078 6.9780657113843327 187 183 177 0.82445300779964026 18 218 15 255 21 193 17 269 3 304 1 301
9159 0.33859544081110893 1.8004140161166244 7.7217181225795644 172 165 163 1.4556828813419573 27 5999 33 1826 22 5661 24 2733 32 1514 28 2689 29 1565 30 3244 31 1561
14246 12.554999080000202 -5.6405768758960741 21.678982460512465 180 178 176 0.58357656090198284 26 1136 29 2169 30 3464
8053 5.3079057546305428 1.3775369076431812 10.123718739766472 182 180 188 1.3602124990307576 27 4637 25 2871 32 571 28 478
13140 -7.9941799098375164 1.109780875226279 11.578651172765035 136 135 140 0.41735090674794717 15 3663 17 3878 3 3449 1 2710
10783 3.3725883940124901 1.5584481275830975 9.0613301795274399 86 85 90 0.2440498192460317 28 5136 32 4143 30 4199 31 4005 35 2416 34 2387 36 3041 40 1980 37 3389 39 4611
9162 4.8555054975554395 1.7675732670107318 8.2423354056349112 205 199 194 0.35264412489707953 26 1558 33 1844 32 2151
14249 1.3948706341210446 1.7224226874174819 8.117949484624841 160 156 151 0.55858093746471049 28 4381 32 1793 29 2181 30 2289 31 2141 35 3200 34 5752 36 4191 38 4101 40 4071 39 3996
11892 -6.5377186921954724 1.203180250071719 9.8570716671275065 168 138 121 0.40495519016803666 18 182 15 268 17 214 3 396 1 259 11 517 10 356 12 344 2 379 6 338 4 288 8 327 5 352
8054 -4.6685571781002997 1.5083892886325705 9.0481597260877091 216 210 203 0.32741423969848193 19 1934 20 1812 25 2878
13141 -8.552349907905592 1.0949188230195992 11.644343330419209 137 138 141 0.3102465630671663 15 3671 17 3884 3 3431
10784 -2.7628125918259654 1.5818187819834615 8.4491372915377561 144 139 141 1.3950212319360553 25 5046 32 4147 26 6227
9163 5.0430490291665375 1.7532400536265229 8.2565197821150687 148 142 137 1.2507780601094753 26 1597 33 1846 32 5653
14250 6.2946242284493454 1.6836726440196648 8.557910992356927 183 178 177 0.93674212204806795 32 2365 29 2184 30 2283 31 1381 34 2302 38 2175
9164 -2.4115521892717382 1.7029742506032381 8.076255261594163 176 168 162 0.63495316292378623 27 4436 33 1849 13 3685 16 3415 21 1161 32 4394
19437 -5.5680230992109196 1.9380626005463026 6.7492968633958581 245 240 228 0.32292452364322644 11 2390 10 2492 12 2223 9 1967 7 1889 2 1913 6 1838 4 1834 8 1810 5 6892 2 6982
14251 5.3412004002417888 1.6995295884317208 8.436864235896266 213 209 201 0.3568627493720456 28 2821 29 2191 30 5268 32 5735 31 5006 35 5256
11894 -6.7175327947213823 1.3117461508013157 9.882780829728917 224 205 188 1.0653303499775 18 270 15 295 17 314 3 245 11 511 10 563 12 555 6 1150 2 2565 4 1229 8 807
8056 -2.1153327963625479 1.5159510004429353 9.1050577701767796 244 237 235 0.79146961465090582 13 5081 25 2880 33 2087 32 4855 28 3104 18 4680 15 2566 17 4090 3 4467 1 2926 11 5480 12 7152 9 2832 7 2414 2 2407 6 2347 4 3554 8 2035 5 2304
18329 7.7834067230425523 1.4905450863517569 7.4136617541223924 17 25 34 0.36738275236749324 31 2881 38 4196 37 3015
13143 -8.3276005644308384 1.0668802852764452 11.852703984732281 140 139 144 0.33924517653032393 15 3674 17 3888 3 3481 1 4215
10786 3.21751103030704 1.5811054668540281 8.946985951440471 235 230 225 0.32734474781643902 28 5130 33 4366 32 4167 29 3653 30 4383 31 3915 35 4361 34 4301 38 4628 40 4298 41 4488 37 4315 39 4508
9165 5.1330373263548932 1.6584380756013346 8.6202633939859279 173 169 163 0.52992794979584323 26 1456 33 1852 32 1782 29 1449
14252 6.0570690428186396 1.7574259369986844 8.2259306380481441 213 209 204 0.7212963877235079 28 2911 32 2246 29 2196 30 3105 31 2908 34 3195 35 5450
8057 4.8351754201875901 1.5227869085097452 9.3817034612700798 188 186 194 0.90423621039442204 19 3645 20 3910 27 4972 25 2883 16 3087 23 4587 33 2065 14 3143 32 4237 28 3039 29 2338 30 1919 31 1798 41 1958 37 1996
13144 -9.8304509959380884 0.33081699644265977 14.958500570268408 53 49 44 0.34333104407705534 15 3722 18 3695 17 3898
9166 5.6192188991070582 1.6426648285620593 8.7785130743045041 184 181 164 1.8028871442605283 28 1747 33 1867 32 350 33 418 30 247 30 3037 31 981 35 4288 34 1560
14253 6.5799552707763489 1.7566778347438783 8.1574831324462238 160 155 152 0.97481094292947623 28 1720 29 2207 30 3127 31 4462 35 5489 34 5124 39 3989
7516 1.9606090887530292 1.0096514149666069 11.82958531533691 166 161 163 0.99254112544794948 23 2454 19 2484 21 1240 18 1341 15 3247 26 241 17 1619 3 1419 27 245 1 1483 11 1455 10 1491
12603 -4.3019685641198153 1.8959600852366976 7.1422519191297242 200 196 190 0.6127411885968338 18 5784 21 6143 15 5458
10246 -1.3583398365515336 1.8114524997345476 7.3741905557760798 64 62 61 1.9640373225097107 19 4291 22 780 23 689 26 834 13 616 14 687 21 858 21 6065 26 2612 32 5882 18 792
8625 -3.3839890529330181 1.972518135235823 6.4980985179359916 201 198 200 1.5663978730016359 13 4511 16 1563 19 4765 23 1826 25 5837 24 5514 27 2826 14 4008 21 2489 18 3213 15 3295 17 2767 3 2513 1 2791 11 3062 10 3059 12 8339 9 7848 7 6522 2 6163 6 6025 4 6037 8 6152 11 8274
18898 -7.419164261584136 2.1137931283040383 5.8459863177055968 159 154 156 0.70364462425244356 11 478 10 529 12 524 9 314 7 337 2 334
13712 -3.0880119023346428 1.1673158197272411 11.295680581566936 124 122 123 0.53807734140283492 15 3427 3 3508 1 4112
9168 -1.1618225047779245 1.7165783540486101 7.8997009176298647 219 212 212 0.82347554301424764 27 4233 33 1883 32 2408
19441 -3.467235332097625 1.8739246153301274 7.0585293172949326 203 197 192 0.26578866814973084 11 2402 10 2497 12 2628 9 2049 7 1839 2 2756 6 1805 4 1802 8 3768 5 2644
14255 6.3773318178797993 1.7804191755243015 8.039299988425272 167 162 159 0.52990868818767722 28 4729 29 2223 31 2955 35 3187 36 2668 38 2150 40 2506 41 2589 37 1724 39 2122
13148 -0.64560978313051332 1.2325243418012541 10.752340430033197 103 101 102 0.29613259472430714 15 4117 17 3922 23 3459 24 4137 3 4166 25 4675
10791 -0.26394959212738739 1.5915741171875182 8.6805790861380938 130 130 127 0.56546385822437639 25 4797 32 4193 30 4398
9170 5.8238127049418988 1.62321567352122 9.2548771034869191 135 130 119 1.5443075073494381 26 735 33 1909 32 1971
19443 -4.1461151075504814 1.8950202417717399 6.9920765800080282 184 178 171 0.3900725600776091 11 2406 10 2502 12 2634 9 2051 7 2755 2 2738 6 2689 8 3749
14257 6.6197553771139654 1.7407816035719754 8.2890030315812595 176 171 168 0.58638965363180851 28 2687 29 2244 34 1529 41 1327 37 1334
9171 4.1608953302897174 1.5997542194334871 8.8845107248486563 106 105 94 1.8717533839530915 28 3182 33 1935 32 4462 30 4242
14258 -0.50767178340793062 -1.1500096848759462 11.348077629926454 186 182 172 0.38795772059009181 25 2347 29 2265
7521 0.67957967598341529 1.9520078976285959 6.7788322676450079 182 175 173 0.49315490737278728 19 4172 22 5291 24 2967 27 3102 26 1408 13 4558 25 951 33 962 21 4858 18 3280 17 1868 3 1969
12608 -1.8556300867632858 1.8569191354637871 7.2604934375680985 211 205 200 0.19958946714860135 18 5841 15 5494 17 3508
10251 0.71390512743741164 1.9415011852795141 6.5622933913133874 215 209 209 1.38322743531036 27 5498 21 4783 23 5185 24 5289 27 2884 26 1924 25 3396
8630 3.1267674076081708 1.4541698848493469 9.5992347858727651 104 102 110 0.63467311291692652 27 4556 25 5887 33 4702 32 2026 30 4627 31 3648 35 2114 34 1964 37 3232 39 4738
18903 -2.7732536364297977 1.97822458417265 6.431883617760886 204 200 194 1.1363042890428856 11 7328 10 538 12 892 9 781 7 426 2 687 6 423 4 6084 2 6239 7 6270 5 750
9172 -1.8484431772277643 1.5998710011061641 8.559723270456308 145 142 129 0.93884165192510094 26 1513 27 4144 33 1940 32 1881
