# 3D point list with one line of data per point:
#   POINT3D_ID, X, Y, Z, R, G, B, ERROR, TRACK[] as (IMAGE_ID, POINT2D_IDX)
# Number of points: 332, mean track length: 6.5041640591151975
10099 4.1354387359824374 -1.8697664735718345 10.006748970574032 76 107 40 0.66686589474485336 36 4644 27 5700 32 4883 26 5893 25 7533
11915 5.3835979481090517 -1.9916136986244981 10.089661359434686 172 218 47 1.5356078915967488 30 7584 26 5913 20 3306 16 3497
11916 3.5394749532842629 -2.0116128527629198 9.5445104061415229 14 37 0 0.74780789595590791 27 5842 26 5921 25 7313
9559 10.527188415741799 -2.4597000764957584 12.207040170190179 34 58 17 0.63921072372199872 28 167 33 181 27 184 26 168 25 338 21 277 24 257 23 268 19 375 18 305
11917 3.2906932302897465 -1.8131314178135067 9.5327112405321817 43 71 10 1.0203218553854845 29 7336 26 5928 31 2834 36 2904 24 5475 23 3995
9560 5.3964363377216671 -1.8742990473252323 9.5264522231087998 67 46 36 1.397289660216789 33 303 27 185
11918 13.737287942997954 -0.038927116755839423 15.424999790658038 10 5 4 0.43587307646457757 27 2723 28 3020 26 5931
9561 11.866792472005574 -2.0164672633400569 12.889909290430758 64 88 37 1.798576056251771 36 118 27 193 26 112 25 103
11351 3.2019522359970005 -2.1549443289557404 9.2681124659313241 19 48 0 1.3516811647834086 27 559 26 548 25 268
7373 9.2415664829994348 -5.4083083700979708 16.081056387516913 126 159 77 0.65399380232527782 30 3331 31 3346 35 3292 33 3859 28 5641
10103 4.3591205605920917 -2.2040870934215624 10.050568434758917 17 22 2 1.7224810852846844 36 4795 27 5734 30 7541 31 7728 32 4801 35 8124 30 7430 31 7758 24 1057 25 1775
11919 4.0389281191992383 -2.0584972668691801 9.1754988681591083 45 85 7 1.2769523382216701 34 8917 26 5947 24 2584
9562 10.01269616035567 -1.9355786509369841 14.134876419511151 23 46 11 0.74378651557060016 28 186 33 191 34 203 27 195 35 232 29 183 30 188 31 173 36 182 32 171 26 184 37 132
11893 5.0959371645651537 -0.11789393834456474 12.952843349250605 87 67 53 0.56940537866610552 21 2988 27 6565 26 5699 20 3060
9536 1.2607749416359162 1.214658012823429 10.590503945391779 243 213 184 1.8124841086064252 28 19 27 20 26 18 25 34 24 28 23 23 20 35
7915 11.566217153315044 -4.1660085016998005 12.089490944501943 46 72 21 1.3977023655858221 30 6876 34 5905 35 7207 33 8268
11920 10.191831621350154 -2.5906646971193901 11.339797463998581 27 58 5 0.84073186259943256 27 2981 26 5962 25 2832 24 4381 21 4260 23 4451
9563 1.416140124208372 -1.0927758119370794 14.081961275075848 146 143 125 1.1624711391133433 28 276 33 261 27 200 26 269 25 247 24 356 23 861
11354 1.4769357761952835 1.5506714756721134 10.738344707467133 63 45 42 0.89061205335011107 33 5945 23 1668 8 672
4743 2.0335190846607198 -2.4402475497414131 9.1803818785806719 89 123 47 1.0866324632369888 29 4328 30 6475 31 9466 35 6657 34 5033 36 5169 33 3142 32 6851 20 4928 21 3316 19 5050 17 4529 15 4817 14 3132 13 3731 12 2277
25496 -14.647573962184223 -2.4876357454522502 9.2924755873353178 48 73 10 1.132481366246836 2 2780 10 1709 4 2698
7376 3.7199150022133272 1.4579108420987532 14.616929577708387 51 31 21 0.63422479270237331 30 4192 33 3900 28 7273 32 3342 25 3543 21 2556 24 3405 19 2862 18 3883 9 1798
10106 10.350536548994247 -2.8521037242884342 11.1553644447485 93 122 59 0.85395513754750585 28 8832 34 3173 27 5746
11922 2.8223917499202962 -2.1000688602778559 9.2200967291503133 99 143 70 1.5247344734072841 21 4130 33 4986 34 3174 26 5990 35 2207 32 3535 25 2687 37 2831 37 3925 24 4411 23 4565 22 7038 30 2402 31 1367 36 1390 19 3136 18 5050 17 2904 16 3465
9565 2.3098169449537633 -2.5938838206395807 9.0406175255780212 18 32 6 1.047452459557749 29 421 36 195 30 203 31 188 35 197 32 183 26 225
11924 7.3455665873118638 2.6962971080392988 8.0642640537197945 240 237 231 0.69513308484125635 27 9742 26 6071 25 9656
9567 3.4254901453435327 -2.2035313165107073 9.2770214054702205 67 90 26 1.5229887909620681 34 170 27 233 35 7936 26 220 25 169 37 158 24 301 23 329 22 463
11357 9.6023142070856515 1.5429009425755691 12.062802931958105 171 153 142 2.2675300675922676 31 561 26 588 24 325 23 403 22 404
10109 4.1204852741605809 -1.9869717470628279 9.5397544393677727 27 46 3 0.77562916866197917 28 3523 27 5815 32 2965 35 2867
11925 12.595193513924137 -3.4576560710482327 11.30898661257814 101 113 51 1.3789538801489232 27 2209 28 3912 33 2423 26 6082
9568 8.2085906442701742 1.7135766039782196 11.835443049902528 183 179 171 1.2912376247713697 34 139 35 229 27 241
11926 5.58482771682697 1.5133284827493196 15.067122038612954 46 30 24 1.2819004329449994 27 10457 28 10441 26 6085 25 9768 21 6240 24 4113 27 6929 20 6116
9569 2.8687477227557854 2.34430944142983 11.765684733288518 191 196 195 1.2379016428448448 33 145 34 135 27 249
11359 0.20783238544679167 2.3850019609241246 10.012113249906301 187 186 177 1.7461379744683738 29 600 30 614 31 577 35 590 36 589 26 597 25 563 37 703 24 543
7381 3.6460340269332616 1.3602489757023466 15.030403415317512 63 45 40 2.470892544749244 30 2574 34 6286 33 3926 28 7316 27 4006 27 4007 26 8303 23 6372
12468 13.940038993065306 1.2242710623939026 14.250748970040238 151 134 124 1.1836294948799506 27 219 33 135 25 209 26 242
10111 2.6633259904002955 -1.9241310572184338 9.336021012882096 177 230 89 0.56502121029397845 34 5152 27 5834 26 7265
11927 3.0991266683651082 -2.6316249132394121 8.5571572685966348 55 77 31 1.6793026453706394 28 8557 26 6093 25 4422 23 2326
9570 2.2995450203578898 2.5475276104428035 9.2562213933259443 233 234 226 1.0549785431715273 31 349 27 259 30 363 36 363 32 359 37 272 24 334
11929 9.6909949277505163 1.7877330365268524 13.99085064875006 79 64 62 0.65333434961492465 27 10579 26 6096 17 5750 22 7280
11363 11.561317620343864 -1.0294846602608878 13.417920431493821 109 140 98 1.8613654170375349 27 633 28 1197 26 622 25 578
7385 1.0961771974159038 0.87903682979588038 10.385730553746075 250 249 247 1.077329014388283 29 5596 30 5231 31 8624 33 3943 26 5136 23 3739 22 3601 20 3992
10115 8.1007875166950338 2.3092026879610943 9.7680628439085435 206 197 191 0.90751333670541967 28 4779 34 7367 27 5860 32 3949 25 6295 37 2887 22 2220
11931 6.0327602377875271 2.6258946669657388 8.5546094091499398 231 231 226 1.3069343836248906 29 5072 36 6915 26 6108 37 3097 23 4893
9574 12.743231675152112 -1.1305065629572935 13.139590595433781 97 78 65 0.78975546984723055 31 229 36 244 27 307
11755 12.719107630645222 0.14232961242781908 17.188713565494421 95 73 70 1.0005053205625383 21 2255 26 4255 24 4063 30 2526 20 3067 19 2740 18 1777
3906 4.9455965279982479 -2.3986143686938517 9.9584899544379191 38 65 13 1.0770826454837881 30 876 35 698 34 1659 31 1275 29 2125 36 1286 33 1985 28 2561 32 855
24659 -7.3467568763985112 2.8267833742919981 6.8528278836856833 226 226 221 0.22445085940983323 7 645 1 642 3 643
9398 2.024807933863197 2.3747792814674016 10.215310027930339 178 177 170 1.1932504151640053 34 10546 28 9902 25 9588 23 7920
7777 13.762611592648145 1.1381031562511761 14.292646631954398 154 132 129 0.9062948661421375 31 3297 33 6891 29 5626 30 4187 35 5272
4704 7.2388651168199205 -0.76193068984301815 11.960510259326186 143 183 101 0.60151233496832179 31 2472 34 4860 29 3912 36 4239 33 6513 32 4203 37 2394 24 8724
25457 -2.5005594536675431 -2.5323124379932636 9.414697928679411 0 0 0 0.89461343665235926 6 115 10 105
11364 2.4973345372963109 -0.29909122195745635 13.127647954632675 83 72 55 0.28834312135646584 26 624 25 609
7386 10.51614136794287 1.5024822516482776 14.616343454031817 39 28 26 0.72971444051826229 31 3720 33 3950 26 4949
12473 2.137755918952073 -1.6164811426286338 13.297883374526711 122 118 97 1.0905350893948569 26 117 25 239 24 163 22 235
10116 9.1962874372980128 2.3229538307872324 9.1114119591528144 215 211 205 1.6469699639952822 34 4318 36 4198 27 5868 31 9209
11932 6.3905431123693246 2.6347544695840441 8.4813414501745257 202 199 193 1.6387921923570412 32 5752 26 6109 25 6094 23 7134
9575 10.076348549057107 -1.8552383019285688 14.909868231995128 41 64 31 0.62113689400729821 28 410 33 396 34 288 27 314 37 139
11933 4.2643009145219155 2.5612325904931152 8.9170099438596413 206 206 201 0.98904659096078773 21 7617 27 9612 32 5467 26 6110 25 6131 24 6243 23 4806 22 4704 20 4667 19 7041 18 6586 17 6790 16 6237 15 4521
9576 4.5646524194515763 -2.5202064351184239 10.046497993582847 153 181 75 1.6279608911702108 28 214 27 319 33 164 26 328 37 91
11757 17.893014509573934 0.60256470350488678 17.984282519000743 189 138 124 0.45424744435595404 27 6625 28 5147 33 6996 26 4284 25 4411
3908 12.603807288935307 0.65261832213415671 15.273173319125323 50 40 28 1.3514738556639549 29 1514 30 1657 31 1553 35 1655 34 1662 36 1694 33 1749 28 2060 27 4552 32 1702 26 3284 23 452 21 431 22 353
24661 -16.4759896642238 2.0554795332613476 12.722546288576472 94 73 71 0.51319067780156014 5 344 10 627 1 649 6 691
9400 8.1931219281034036 2.3849388531992948 9.2405447797770126 187 183 175 1.3694950084238751 36 10284 28 9913 27 9808 32 7373 37 8674 30 8709 31 9174
11934 6.7103190765994229 2.6270420811771764 8.4272184194455857 191 190 182 0.86530014864496485 27 6380 26 6116 24 6210
9577 4.6411799111797221 -2.6842168536719755 9.3623891375234969 57 79 28 1.4162817310129669 34 322 27 336 35 1336 30 3246 32 298 32 2832
11759 2.7989983573820689 -2.7706995597738096 8.8462183727744836 117 141 74 1.8351923733750144 28 8595 26 4321 25 7140 23 5236
3910 11.330005208066336 1.558570053592371 13.178006349484306 179 177 173 0.750849205824628 29 1577 30 1446 31 1437 35 1445 34 1665 36 1472 33 1617 28 1039 27 1537 32 933 26 2603
24663 -17.133224540134851 1.9038379657297415 13.478954260289507 70 57 54 0.64321877080795975 5 323 10 441 1 656 2 495 4 495
9402 10.967292403480714 0.79311017761063185 16.64012636894968 103 90 87 0.92253281195672199 29 8470 28 9956 19 3764 18 2940
7781 2.7561973489772025 -0.083526008493531298 12.794518023303425 95 80 63 1.0228906046332189 29 3888 33 6938 30 5903 28 7577 32 5216
11936 0.18058516040732628 2.4467361939844405 9.8390221093721149 189 188 179 1.3641242464209531 30 9429 31 9214 35 9312 25 6024 23 7260 22 6875 20 6797 17 6792
9579 4.7702251008117456 -2.3668657414867744 9.6486888274324514 63 73 32 2.6722292763803943 34 423 27 354 26 537
11937 7.2754912512830074 2.6172286562230038 8.3344862257048007 218 214 204 1.0045691221909967 27 6384 32 5826 26 6131 25 6403 24 6198 23 4892
11762 11.01748374479711 0.33465799935622254 16.831488781492467 50 36 36 2.0445358416678348 31 4321 26 4345 36 1611 30 5364 29 8545
7784 2.9720145450160205 0.25236101817658541 13.118101637278253 175 164 150 0.89322285125586709 29 4069 33 6972 30 5283 31 2630 36 2629 30 1728 28 3196 32 1696 26 8057
12871 5.8745507209767185 1.7322890700014395 13.930375119175141 46 33 22 1.1175462569106485 26 5102 25 4710 23 3808 20 4143 22 7311 19 2987 18 6233 17 3775 15 3297 16 2944 13 2087
11939 6.7243048615010155 1.9119536973940963 13.006413367665312 131 126 124 0.96141649993008671 32 5695 26 6140 37 7265 36 8867
9582 6.7876529153346619 2.608884689866418 8.3722741373309919 192 188 180 1.5034705383172926 29 365 36 359 27 378 32 351 26 596 25 560 37 283 24 536 23 468
11940 8.0730753004445024 2.7111580560870445 8.0223501050697426 254 251 243 0.80500187087901232 27 4187 26 6146 25 6092 24 9202
9583 3.3876127818940098 2.1442591353320499 10.473527775520681 170 172 169 2.0068410538303292 28 419 35 605 27 388 26 353 25 322
11373 13.588032371876624 0.48768567772785881 14.468673218454862 67 51 49 1.3578658376173998 36 1088 26 660 29 8388 31 4378 30 8950
7395 3.8307625334916602 1.636524962154535 14.230723036366719 72 49 36 0.9382392014392219 31 3696 34 4072 33 3991 30 2324 36 6011 28 7389 27 4064 26 5097 25 3625 24 3475 23 2691
10125 7.1348215088403002 2.4648406971022792 9.0822658251102641 215 213 204 0.98555973401482411 28 6902 29 5176 30 3292 31 6416 36 6763 27 5936 32 5497 26 6328 25 6320 21 3582 37 4193 24 6137 23 4842 22 3516 20 3571 19 5843 18 6555
9408 0.70331585694834731 0.39797933041276357 14.778903176557177 85 80 68 0.72038584605164246 36 9392 28 10001 29 8414 30 8614 27 10319
7787 13.04192090991646 0.29927363774549276 17.329511184254663 48 30 27 1.7433005336033818 30 5365 34 6022 33 6986 35 4675 29 5275 31 3567 36 6316 27 10289 32 4348 25 4407 23 3324 22 4706 20 3849 19 3848 19 6755 21 3978 18 4245
11942 10.129670271236721 -4.4240557041297048 13.435010837092001 87 122 33 1.8690970624428882 27 8560 26 6148 25 4599 22 4569 34 2452
9585 11.039454698804766 -0.81137595585636557 15.444362510853926 44 67 19 1.4553069826852254 29 629 31 609 35 624 36 617 32 626 25 358 24 561 23 438 22 369 20 449
11375 9.5016633785676632 -2.9242159779802188 14.782920044207144 4 14 2 0.35385644876561623 28 573 33 483 26 700
10127 10.193598930417302 2.3767179037862753 8.8013462928907717 254 253 249 1.645126402483237 36 6772 27 5953 26 3887
11943 5.5235869585284529 2.6069675040306399 8.550314386394021 215 214 211 0.84981310504581997 27 6337 26 6155 37 3083 24 6274
9586 12.426629259195874 -2.4112554269064082 11.64122855370665 255 250 98 0.81558512029997099 28 302 29 603 33 481 27 449 26 472 25 408
4717 10.137135231902318 -3.5577526974803129 12.696488452054286 119 158 94 0.88876502671867319 29 4303 30 5011 31 4761 34 4910 36 5514 33 9278 27 8875 32 3585 26 6580 37 3699 24 2580
25470 -15.880927239642482 -7.6665022914604872 27.195990373565252 235 235 232 1.296228981519254 11 1111 4 1256
11945 13.385766220972352 -3.443941862845219 11.888599567350123 69 82 17 1.5430110502884127 27 9028 28 9020 26 6163
9588 1.6102077344839838 -2.0123610560082215 11.01562662752654 32 64 5 0.91249892911859676 28 572 27 458 26 459 37 554
10130 9.8824184805419346 2.4363105607215263 9.0650521663049588 204 200 194 1.233732737631809 29 5663 36 4173 27 5981 26 3890
11513 0.67353698773224335 -2.4781619958580472 8.5485327975796075 58 91 25 1.6117554035180965 30 3336 26 2007 31 2016 35 2178 36 2144 25 2126
7535 7.2284530817188655 -1.9464182662595273 11.963318567635266 97 116 37 1.3624610120930742 34 4593 35 5511 33 5059 30 7360 31 7638 29 7516 32 4863 37 4980
12622 13.215176066384746 -2.4869430797767444 12.118839624936832 176 151 134 1.4721711114663358 26 1778 27 1906 33 1201 25 1773
11189 10.556686194371322 -1.5240617393849079 13.046123283030914 103 137 88 1.5460478417878276 30 2250 33 1291 28 1454 27 1327 32 1193 29 3242 30 3008 31 4125 35 5438 34 6733 36 6222 33 7726 26 1693 26 5513 25 1843 25 5529 21 6574 37 877 37 2492 24 5729 23 1884 22 928 20 830 20 4409 18 4422
25606 -15.583070459782562 2.4485751987908917 11.325111895219933 206 200 190 1.5921754282010985 5 1693 7 2155 1 1869 2 2040 4 2101 3 2133 5 1187 10 2211 7 1456 1 1455 2 1509 6 1349 4 1364
4853 7.5623663087059745 1.8950743865748616 11.818649142157785 177 172 161 0.84869608138967179 29 6002 30 6007 31 5243 34 5577 36 5865 33 5984 27 6764 26 9772 25 9813 37 7326 24 9256 23 7592 20 7240
11947 11.362335580538995 -3.1391506867043755 10.644246142952944 91 123 74 1.6914323422459097 28 5392 26 6179 34 5102 25 6560
9590 13.097254087870313 -1.9540409908909215 13.118233432407418 54 53 29 1.779263574360143 28 1826 34 301 27 474 26 737 25 1883
11948 3.4281229583831307 -2.2171983011972181 9.6731887982681197 101 147 37 0.4096199937189669 28 6096 33 4984 26 6184 37 5308
9591 4.4335877579836236 -1.5660948457538291 12.647839854095739 95 78 58 1.7646611819773819 28 639 27 481 26 754
11949 11.330509375801958 -2.9892586895108226 11.036880398117182 32 58 22 1.3800708311982521 27 8995 33 7390 26 6194
9592 2.1038997277761928 -1.5093650539763555 12.873824005895417 118 114 93 1.4132313792075557 28 738 27 483 25 1007 24 1456 23 204 22 530
11382 13.452171853987283 -2.2409978246991322 12.216397224062881 51 28 25 1.2468654857949657 28 521 26 768 25 729
7404 12.490015700049147 0.60703322694787931 16.832752350819511 104 91 88 1.4060527272779726 36 3446 33 4032 31 8348 25 4164 32 4380 35 5200 37 3312
12491 3.2908302228286184 -2.1335968954566042 9.0206202138190932 91 148 46 1.2538622141671867 26 322 25 412 23 619 22 462 21 496 20 461 19 342
10134 1.5733055687126276 1.9895973017486279 12.623620970003625 129 117 105 0.73546524522234769 34 5593 27 5993 33 9956 35 10224 29 7958 25 9291 37 5096 24 4671
11950 5.6204844917800516 -0.17626018803356699 12.601904624522879 130 146 93 1.4795881036099907 27 7807 26 6207 22 3993 20 3811 21 6420 19 6041 18 5753 17 6188 16 3161 13 2298
9593 10.71583049204297 -5.0026127717136113 14.738342273974657 206 193 74 1.1895976020393155 21 565 28 485 27 486 33 512 34 569 35 824 30 861 26 524 25 768 24 738 23 594 22 571 20 538
4809 2.6438518878732826 -2.061475492451192 9.4674573358160714 142 190 71 2.0972161742789357 29 6443 30 4341 31 5916 36 3043 31 2935 30 3419 33 3339 33 4792 35 2991 28 3452 28 6322 27 3126 26 1826 26 6035 25 1715 25 5876 37 3918 24 5574
25562 -13.381344828219182 -3.6625494657527886 8.39890725292409 59 82 1 0.52247727062949245 1 2030 2 1937 4 1966 6 1907 7 2062 10 1186 3 1910
11420 1.6159115053538113 0.19733310302465115 10.613378204588573 156 153 140 1.0677950769892455 28 1258 26 1067 33 1803 34 1861 35 1605 25 1590 24 759 22 943 18 1355 17 1320
4858 6.039465606809765 1.9207748449116551 11.563733985110019 198 193 181 1.1665360341610924 30 5357 31 4936 34 5589 33 3608 37 4257
25611 -5.5532016281174119 3.0243793315739533 6.1779662843430057 206 208 201 1.3378276116677397 7 439 1 454 2 441 6 467 4 439 3 1498 9 1002 5 686 10 901 7 1522 2 1482 6 1524 4 1412
7491 10.525800666402594 0.15587023180064963 16.508594311362661 53 35 34 0.83969911917848106 31 1584 33 4635
6958 2.2835190526911542 1.8313241838217411 13.167284364924832 81 59 48 0.94842964876320923 29 1414 30 955 35 920 36 845 33 587 32 1497
12045 12.390632379606604 -2.14881309276385 12.412428830296243 183 169 65 1.1426084453618808 34 6490 26 7393 25 5304
9688 11.742013714572231 2.0800994381682592 10.67440264595532 217 217 214 0.50069167145109394 29 892 27 1519 26 1393
11154 12.361225598382438 0.91180733326856711 16.71815534097102 81 67 65 0.25966629470388619 33 10586 32 7936 26 8019
4818 4.9745151147278133 -2.1694381363968582 9.7449814524329632 26 52 2 1.2699329424294985 29 6583 34 5368 25 5783
25571 -13.167392600793738 -3.5733389381710352 7.843658189991638 173 229 103 0.68085444145973506 4 2575 7 2707 10 2171 3 2582 1 2756 6 2692
11155 10.485858445726619 0.98260988899068158 16.836002058134653 153 132 128 0.95158312643029952 28 10089 29 7804 30 7874 34 9552 32 7941 37 7826
11614 12.804742160273785 -2.8167761946264043 11.795995655177913 184 158 121 1.045141983309025 27 5620 33 3414 26 2870 28 6314 25 3182
7636 8.1952326395376307 1.9448670543000901 13.441998679157015 72 64 53 1.1497721763227486 21 3741 34 7125 33 5988 28 7549 27 9342 25 4754 26 4799 24 4590 23 4641 22 7333 20 3362
12723 12.030864481670008 -2.7401744489838187 11.626239466942266 59 84 25 1.6836030555765056 26 2729 36 1425 25 2754 29 1265 31 2695
11156 9.8495359035215735 1.2049446737445895 15.641212895126703 42 29 22 0.70272336415012415 33 10670 32 8007 37 7716 22 6271 19 6267
11615 13.122828394845959 -2.8597371788525012 11.456364422852447 82 101 39 1.5873974025263065 27 3136 28 4117 26 2880
7637 5.1785333060769458 1.8727538330521827 13.400585372361581 148 137 120 0.86069500042553004 30 5469 31 3753 33 5989 35 4995 28 4357 27 3916 25 3602 21 6284 22 4530 20 7171 19 3002 18 6216 17 5659 16 5125 14 3061 13 2945
11157 10.116185140929096 1.2311904850013251 16.111542491983815 63 51 39 0.068113711192011914 33 10686 32 8010
11158 10.498239750608441 1.1713216279695282 15.664694404745838 73 63 64 0.86172188243623149 33 6902 35 4302 32 8014 25 4878 37 2085
6964 12.636202547305791 -1.6247920761706092 12.75107877133698 209 166 154 0.86449483995021015 29 272 31 253 36 286 33 648 30 273
12051 3.8079285046770037 -1.6492405472047567 9.6288006192723952 40 79 14 1.8615381374713016 28 5831 26 7439 24 5513
9694 2.6498318724622343 2.4154864580301383 9.1535867580071226 197 197 192 1.3426679757270781 29 2605 27 1561 31 3814
11164 2.6376028392246695 0.28692311581838603 8.5348818049044404 0 0 0 1.5799725648196585 27 6425 35 1713 34 1802
6969 11.049078412056087 2.214432426409441 9.9642160059306377 223 218 213 0.87026678952855419 29 905 33 682 36 1008 27 1076 26 984
12056 11.732435002911167 -2.7182785297066472 12.419677296706277 109 132 72 1.5314465884822568 35 6199 26 7533 30 7607 36 4852 31 2917 29 3280
9699 7.4903595788307342 2.6577807333236612 8.1380719054255675 198 194 186 0.91590548596150212 21 1781 27 1594 26 1468 25 1432 24 1340 23 1056
11165 2.5831062411293169 0.30033519234636319 12.870850749080617 96 88 81 1.8670601386711247 28 9988 32 8216 26 8040
4829 11.030098562477161 1.5943611112719971 13.902687951171419 24 13 13 1.320714410867337 29 5484 30 5386 31 5288 35 4976 34 5394 36 5966 33 6176 28 10478 27 10604 21 6419 32 5207 21 3593 26 8367 25 8315 26 8368 37 4649 24 4177 23 3857 22 3706 20 3988 19 3871 19 6319 18 4019 18 6371 17 5736
25582 -4.0766899298775492 2.1611210649458772 9.2873244781922804 0 0 0 0.089638482869845743 6 3224 18 3630
11440 7.9117571719730062 -4.4096451671710355 15.356524288821731 98 107 56 0.60050363429225251 29 1703 30 1304 31 1293 32 1271 35 1308 36 1336 26 1253 37 1352
11489 8.1519408677329803 -1.8719051144457972 11.190211200508447 185 209 92 1.2083055355855772 27 796 26 1700 28 856 33 1314 34 1344 37 522 32 753 30 1818 36 1179 29 1792 31 1957 22 1051 20 505 21 464 19 895 18 831 17 710
7511 3.6853020819128242 -1.9001371924171879 9.5059386192802151 53 83 14 0.35450155559724622 30 4661 35 6190 33 4821 28 6305 23 5662
12598 5.1906778529444306 -0.43807068992827342 12.836222743777071 51 30 26 1.9130080051624461 21 2798 25 1540 16 3125
4749 9.6329589816867287 1.6442613638792323 13.637830112306904 51 40 33 0.25839915255735857 31 8477 34 5062
25502 -6.3147060581199845 1.3053866523655262 9.1482375787497467 228 200 180 1.4937411135168623 1 3169 7 3847 4 2975
10241 1.1676795278532921 0.23531399030411576 11.734096899152579 113 109 96 0.67386020334739793 36 1084 27 6619 32 2539
11166 1.3297881803085096 1.0509201262955878 16.211468894437864 161 156 143 1.3793871678032119 27 6848 32 8217 28 7470
11168 7.9673806644759271 2.1382928583146259 9.8230900898145155 214 210 204 1.4102143152226032 34 8460 32 8323 37 8626
6973 1.6949506167071362 -2.0786101972067388 9.5271117757999573 107 155 67 1.0816652842670582 29 714 30 884 31 719 35 711 36 719 33 696 28 751 27 351 32 696 37 697
12060 12.232976842003232 -2.7540620200491452 10.84907294197285 159 197 108 1.2419944243605936 28 8751 26 7627 25 7712
9703 11.133037282014644 2.2852497265424021 9.668956691214925 219 219 216 0.49337348001247916 29 1467 27 1606 26 1410
11493 4.3304951476805655 -2.5572948526041919 8.5799528398731617 148 196 107 1.4916114255125925 30 810 26 1751 24 1156 23 904
25506 -14.173819414857702 2.2667987828542087 11.94747826651863 128 113 106 0.49455982394547382 5 2504 10 3193 4 3039
4753 3.4906810376519131 -2.4669931546445003 9.2688204460091281 164 210 115 0.60967178779158648 30 6488 31 6638 35 6947 34 5082 33 9962
10245 7.7516049222399461 0.10875955965374501 12.511031644740608 112 146 114 0.85635188154033737 35 6430 27 6645 30 5285 34 6001 29 5281 31 8982 36 6351 33 3645 32 5602 37 4502 23 3329 22 6127 18 4285 17 6028 16 5445 15 3809
11170 3.7546486809244746 -1.4730431108461428 10.453386560653533 87 121 39 2.0905393228634672 31 6044 35 8849 36 7851 29 2996 32 3222 35 5480 29 7106 30 3145 31 2993 34 1986 36 3144 37 6689 28 8207
11172 7.2759171545430981 2.3747073196196813 9.7372321597658189 242 241 232 1.470855870155688 29 974 28 1124 32 1006 31 2401 35 3874 30 2454 29 2373 34 4304 36 4185 33 4178 27 5909 26 955 26 6295 25 9141 37 1079 24 7224 23 7830 24 2215 22 3541
25589 -5.6237992074824215 -0.75207468369390329 1.3987665681084376 0 0 0 0.43168472904061733 6 2595 7 1371
4836 6.3200206084194548 1.7638212915928406 13.302465277438191 37 15 8 1.530144889841131 30 7991 31 9892 35 5006 34 5440 36 8793 33 6162 32 5095 32 7666
11447 4.68530753468408 -2.4390986386809299 8.3725204719847106 194 232 171 1.2046330560702105 27 1888 26 1291 25 1211 24 1152
11174 0.71470829573804573 1.5201674827216693 10.489926176971109 61 55 51 1.9566968220854963 29 8005 30 7994 31 9941 34 5570 33 9311 28 6633 27 6042 32 5092 34 4390 28 6615 33 6039 26 2269 26 4896 25 9275 28 1736 34 10904 37 6914 24 5885 15 5980
6979 4.2585280102028173 -2.383570602096365 9.0999188639022837 28 51 5 1.7221557452211993 35 542 33 734 28 745
12066 11.470328131163068 -3.2132193581977462 11.886925067345143 27 57 10 0.66484490949506714 27 3762 26 7671 28 4160
9709 2.0389505369433119 0.15593510846517353 10.286050930952836 162 159 149 1.6979419491909431 36 1617 29 1502 30 4234 31 2634 26 1632 24 1468
11499 13.217207513470047 -2.6733393048247516 12.108675016790601 183 150 140 2.4865881810181656 27 2005 33 1261 26 1817
7521 9.9576058733747175 -3.0764425231885419 12.212562315518365 23 52 18 1.2997717724447868 29 6309 30 6582 34 7095 35 8068 33 4952 28 3663 27 8607 32 3440 26 5697 25 5621 21 2358 37 6012 24 4508 23 2099 20 1479 19 2260 18 1854
11501 13.416172655079972 -2.8364698846790408 12.333667861802038 47 48 43 1.4917201836239453 27 1969 33 798 26 1836 28 2192
7523 9.63184964211184 -3.3470194128671014 13.174601656506569 148 183 135 1.8406208486593667 29 6379 30 6572 31 6765 34 3475 33 4967 35 6402 33 5015 34 5276 28 6098 28 6201 27 3116 32 6727 26 7566 25 7544 37 3595 37 6028 24 4506 24 9003 23 4534 23 5845 22 4196 22 5701 20 3124
12610 1.5214343884410759 0.21689190539287156 10.556584290872825 147 146 134 1.4233393623107522 28 2064 25 1622 24 1457 29 871 30 1612 31 1534 23 1192 22 1425 20 1141 19 2662 18 2530 17 2656 16 2495 14 1905
4761 5.2372562732523029 -2.5333456592330994 9.2847533658681272 64 106 28 1.221434543759788 30 4960 31 4746 35 4695 34 5108 36 3691 33 5655 28 5465 27 3781 32 3305 37 2585 23 2487 24 4178
25514 -13.883018676100287 -2.0426107744342401 11.42537204218716 50 41 20 0.53551343111054328 5 2293 10 2486 4 3313
10253 8.7072051026843429 1.7800457798865523 14.056037595296377 188 175 145 0.30577332169757948 29 5599 27 6709 31 9915
11199 3.0427647255691439 0.092179701100458075 13.438206179278003 117 112 101 1.6511997206869762 31 2605 34 9104 33 1778 29 2410 32 2560 28 5127 35 1121
4863 2.2355300267521936 1.807608722700434 13.308315618868313 60 43 31 1.1826849265418959 29 5559 30 8018 35 9814 34 5644 31 9887 36 8806 33 4244 28 9517 27 2515 32 7734 26 2222 26 4809 25 2198 25 4839 37 6911
25616 -9.0941143485520026 1.2680264196214404 9.9357776131842233 135 102 60 1.6676374584265523 11 2793 9 2346 8 2966 7 3187 1 3227 6 3364 4 2963 3 3258 12 2852 1 3241 2 3253 6 3365 4 2955
7545 1.6706139260993904 -1.791801655314049 13.579210272519537 102 93 75 1.4122680986367815 30 7271 35 5495 33 5126 31 5460 34 6832 35 8853 36 7872 28 3543 37 6735
9430 12.522745689869421 0.31533792348211376 14.586037743880437 111 94 71 0.56976930553640703 31 8292 28 10285 35 8255 27 10197 32 5403
7809 1.8682145089440227 -1.9645579132072579 9.0091140542669361 88 134 48 0.24872838292958591 35 7849 33 7165 32 7215
11396 9.5795039180000359 -3.7052878420050872 13.953471033158682 161 192 95 1.0817065137500994 27 882 26 862 25 1316 24 1203
4785 3.6568803507271705 -1.864590513575189 9.4777485431854895 170 218 87 0.7686677052918689 30 4671 31 5840 35 6152 34 5216 36 4650 33 5209 28 6284 27 5624 32 4714 26 7211 25 7471 24 7132 15 4956 13 4078
25538 -4.0697351093328509 1.9430968823532346 9.2401528973116172 193 179 167 0.98795982823091233 6 1497 7 1444 10 872 4 2031 18 3587 17 2204 16 2927 15 2341 14 4921 8 1408 9 2351 5 1161
7418 1.8311933924016663 1.0601897331740548 14.334427163071796 69 56 49 1.731687855095976 29 3976 33 4106 37 3293 23 3730
10148 1.6684266497880731 2.3263484398809564 12.187117591463705 135 126 119 1.0832146319691283 36 5969 27 6071 37 7336
11964 7.8709216624917762 2.5069472036502884 8.8692839625711422 222 218 210 1.0093135933011879 32 5686 26 6327 25 6335 23 7191
9607 9.0985556068942461 2.2717483518898915 9.2893486269619796 222 221 212 1.7850586500302974 36 368 27 603 26 606
11200 4.8904248832983521 -2.6551853815248379 9.1373097914775485 115 162 63 0.94713501465362038 32 2071 34 2493 35 2116 33 3725 29 3155 31 3209 36 3314 30 3225
11604 9.747426359090559 -3.3281749716771607 14.511074852134151 104 122 83 0.61688772151472882 27 2996 26 2715 28 6382 33 3422 34 3509 35 2930 25 2801 37 2725 24 2560 23 2056 22 1852
7626 10.407472207636483 1.8898908401164451 12.077399403486398 160 139 129 1.4665577106574921 29 7910 30 9248 31 9955 33 5923 23 7741 27 9481
25617 -17.078704084176398 -2.3267671644174319 13.413011760869722 20 16 9 2.5755833942562005 3 920 7 924 5 1264 2 2230 6 3576 4 3136
4864 2.9888096612834811 1.8271530539789433 13.386812372229219 56 38 33 0.79492450571634321 30 5398 31 6292 35 5017 34 5646 33 5966 28 4361 29 3596 27 9475 26 4819 25 4684 37 6873 24 4566 23 4709
10356 2.4892167988405824 0.0096551864544673783 9.3086060402926378 111 112 102 1.6900447131963081 36 9083 27 7774 29 5283 30 6143
11146 0.40202128247979063 1.9348185980699975 10.26292918531605 138 131 124 2.036210796985487 33 9719 34 7172 32 7785 26 6325 25 9120
11663 12.214576640726964 -3.3762863455805379 10.774661049019912 117 161 94 1.0333532686612925 27 3774 28 3815 26 3492 33 2381
9306 5.1641702761121007 -2.4325618864232599 9.183886260519845 70 110 32 0.71026555876186126 29 4415 31 6559 36 7667 28 8957
7685 4.4655176989787524 -0.85153268116056158 12.62502079367342 126 149 94 0.66664925561916422 34 6090 35 5691 33 6351
12772 7.2957795973000117 2.1416708800945599 10.695678643313933 188 184 176 0.58563943846362299 21 3485 32 3705 25 3497 24 3362 20 5504 23 6099 19 3444 18 4155
11147 8.9810686252291578 2.148334384844389 10.527786078238385 194 190 182 0.85111527265223963 34 8463 32 7808 22 7484
25623 -8.3934702224697642 4.0876287899575177 8.3614366396489377 238 238 233 2.1810467235101672 1 3704 2 3282 7 3651 3 2357
7011 12.688698761735706 0.304974859083669 14.59795423640624 104 91 75 1.2712796028177253 30 1134 31 633 34 2972 36 1075 33 1004 35 2696 29 4100 30 4231 31 4362 28 1241 27 1655 32 1684 26 4224
12098 16.035115058250675 0.91875607285554406 16.010529041966056 117 79 70 0.59453575066892395 33 7114 26 8058 25 4329
9741 10.985092478799027 -1.6307919718751409 13.3149631281578 82 110 59 0.68936804488279801 33 2692 35 1748 27 2071 26 4051 25 2912 24 3859 23 2237 22 2834 20 1900
11794 6.6221795199045701 2.015425107066354 11.297658141959651 174 169 158 0.84284097568120409 21 7444 36 5904 26 4760 37 4286 24 9618 23 3560 22 7259 20 5535 19 5679 18 6260 16 6045 15 5983
3945 2.968716833954089 -0.94759309466098707 12.618185743056147 112 99 72 0.56191441803738074 29 1178 30 1264 31 1187 35 1235 34 1766 36 1216 33 1710 28 1406 32 1871 37 943
24698 -12.985210117524931 -3.4636499511100283 13.044397440758576 58 53 50 0.70838619181275564 10 807 1 888 2 887 6 909 5 619 4 845 3 901
9437 1.6576324289196751 1.2595225304145665 14.673928588925904 75 69 62 0.63184706803387258 36 8543 28 10343 27 10512 32 8021 30 7976
7816 10.373858447959387 -2.8914179853294462 12.588699734199167 73 106 51 0.68218342449229286 30 7485 33 7236 29 4588 26 7755
11821 5.7464833221629918 1.2900863849302386 15.396533221305893 135 124 114 0.70830488158587901 27 4037 26 4951 17 3609
9464 0.90802097181615782 0.91860655657989299 14.092758209703467 107 99 86 1.231625768924826 36 8685 28 10533 26 8228
11403 12.045149989019713 1.8094767650223096 14.833540581527716 174 173 168 1.4545946015371192 29 1575 30 1476 31 1436 32 1472 26 928
25545 -13.270285628686379 -4.0759088319672916 10.84541432983891 53 80 10 0.44125265757724225 1 234 2 224 4 230 6 258 7 237 10 140 3 247
4792 9.8324588394159189 -2.7882469801958494 12.453460426324426 9 41 2 0.47496896949647904 31 1816 35 3162 34 5252 36 3083 33 3389 28 6360 27 5638 32 3004 37 2728
7425 9.7810682780069911 2.3816201335639255 9.0938226412390506 215 210 203 0.56068863072107922 35 3919 33 4181 27 4325 26 6429
4663 1.9275736662842202 -0.20320771576563398 11.065843487538096 243 248 247 0.89946531747050018 29 5466 30 6101 31 8953 35 6412 34 4729 33 6963 28 10192 27 7826 32 1586 26 8097 37 7520 24 7872 22 6630
25416 -4.563998824757574 2.5676962018265965 8.9514545908585674 201 203 199 0.45649938123577816 16 5944 6 3667
10155 4.3496556641264208 -2.2208771494483313 9.684900311047647 75 117 19 1.0261904091149792 28 6148 33 7209 27 6119
11971 3.668707245326587 2.4905331016293681 9.3626830422691967 221 224 217 0.86809296981100559 28 4647 26 6369 25 6398 20 6780
9614 1.2465294700169616 -1.9512304460921557 11.176025583856021 115 111 92 0.92203385567395801 28 776 27 704 33 773 37 560
11148 7.9884013460756558 2.1697853858517084 10.452411687801005 216 212 204 1.0720576714238204 21 7533 34 10076 32 7811 37 8606 24 9517
11972 6.2617590829997472 2.5499801950252814 8.8032147158814009 219 219 214 0.77849986604093924 32 5545 26 6375 25 9563 24 8845 22 6788
9615 1.4705864519854679 -1.6871490135337945 10.328347845392953 116 112 93 1.9692395632538848 28 1284 27 714 25 1168 20 5599 22 1282
11178 7.9946503047976067 -1.6113729575268587 11.852487579197554 172 213 59 1.9489215965766107 29 747 30 743 31 1132 35 758 36 718 32 459 34 2878 35 1977 33 2745 31 7406 28 2280 27 2035 37 907
11149 9.3958820994243659 2.0248871232925421 10.830053805808705 191 187 181 1.9680266823152959 28 9173 30 2280 34 10319 32 7816 26 3522 37 7183
6954 10.561838133387544 -4.9083975968626472 15.665324740445971 53 75 19 1.2635486565196337 30 499 34 552 35 553 33 539 31 298 36 1774 29 2015 28 475 27 523 32 840 26 516 25 458 24 502
12041 2.422160547560543 -1.964800697442358 9.7545825349816226 79 119 30 0.93719287772560322 27 8741 26 7350 25 7228 24 7087 23 5608 12 2299
9684 11.950762659417224 -2.9501032819805455 11.929153971195934 23 41 9 1.824383744823872 28 1584 33 1862 34 1494 27 1459 35 1927 30 2883 29 4243 31 3427 36 3642 25 2082 26 1384
11208 3.9469878100933791 2.1195795914619517 12.076158745820939 117 110 103 1.4607459399328562 29 2203 28 4705 32 3659 30 564 31 927 35 557 29 891 28 678 27 625 26 611 24 3350 23 2621
11973 -0.68113209136808517 2.8024610660348794 11.9996385303651 79 103 79 1.3301092064825943 21 3521 25 9700
9616 2.9308235618080865 -1.6344457087905551 10.211687241938627 117 160 40 0.70085005837192205 28 930 33 787 27 718 34 797 32 1147 37 521
11196 7.0984663237025378 2.4424538908234639 9.1589234221549685 219 214 204 1.5938849717438162 31 9289 35 9569 27 9795 32 7358 31 9267 35 9765 36 10278 27 9805 30 7555 32 7386 26 9088 26 9181 25 9203 25 9211 37 4166 24 8775 23 7215
7001 1.9250878813814203 1.3000370659165394 14.548940959676971 84 81 76 1.7431133554727538 30 1627 35 948 33 963 32 1678 25 871 23 1159 22 1056
12088 15.952441986058702 0.89402362933922486 16.071000935057857 238 209 198 0.54332513810273064 27 6412 33 6773 26 7954 28 5172 25 7929
9731 4.1317135369965641 -1.789553773981589 10.031457879571628 46 45 26 2.0503857488264376 34 2113 27 1916 33 10307 35 769 30 1872 32 679 26 1157 37 1028
11784 12.371878316930108 -3.6774307712986642 10.71732073922378 135 165 71 1.5286818778809792 28 5626 26 4637 27 6216
3935 3.0990583647712824 -0.027576674664577264 14.761517856545607 141 135 129 1.6027755422053553 29 1521 30 2502 31 1597 34 1737 35 1590 36 1598 27 1646 32 1037 26 1103
24688 -15.024810705192017 -1.6830902200931337 8.8559540890453956 8 3 1 1.3843301056724293 10 1614 1 794 2 791 6 1617 4 766
9427 0.028270555288974354 -0.33228473106111228 16.080777269002983 138 130 116 1.0106509890960309 29 8518 28 10202 35 9073
12893 13.428647661812388 1.2350693774678156 15.662012182642037 114 101 98 0.32225092310419262 27 6478 25 4953 19 6391
11811 2.4125605786911621 2.0628274974959862 12.525583437350685 133 124 106 1.4297136822112497 28 6634 34 4355 35 4941 26 4891 32 7883 25 9290 37 3490 24 9488 22 7178
9454 2.8818676126300846 1.2808205832321449 13.405993622329458 130 113 99 1.0460097790028604 29 4021 31 5185 28 10482 30 7774 36 5693 27 10615
4733 10.099132557533528 -3.5538520433100667 12.898118006267786 105 134 81 0.97596304475751605 31 6529 34 4982 28 8971 27 5297 24 7485
25486 -3.665629366659334 -1.2457713167240916 7.5286928435454623 0 0 0 1.2948252070141737 9 419 10 692
11961 2.0166789221956161 2.3745713983533565 10.136402574147022 210 210 205 1.4307363041345726 28 6485 26 6312 25 6377 24 8765
9604 5.869382193012961 2.3942930712562811 8.9802119599401475 171 172 169 1.9511520335255561 31 520 27 597 30 362 26 1474
11150 7.9299579740519732 1.8509772873837227 12.1093311397926 193 193 183 0.49461312407700442 27 9473 32 7829 37 7355
6955 5.5114034528404332 -2.8284951389200645 9.1401466535206985 163 210 95 1.5909117072481429 31 822 33 551 30 1759
12042 10.309416090574967 -2.3017033660030508 13.348160838287514 29 35 13 0.7407240726140758 36 5031 26 7370 31 7306
9685 9.4066280016642949 -3.5115201627573951 14.591164832399489 42 55 15 1.0420516438371863 28 1634 33 1243 27 1465 34 1496 33 7140
11209 2.9355426538235307 1.1269900794537677 14.983786602102315 28 21 15 1.1042801920431256 29 3977 30 3252 31 4205 34 4234 36 4498 28 7439 32 5378 35 7702 27 10680 37 4721 17 5722
11406 4.9598067138674171 2.583388881729916 8.6043198744131075 235 237 232 1.1075983755911512 31 1494 26 959 25 919
4795 9.702014505598223 -3.3560124396663413 13.089980925359633 168 203 145 0.90991471990683215 31 6745 35 7819 34 5279 29 6404 36 5409 27 3735 28 4070 26 2104 37 2821 24 1606 23 1577 22 1405 20 1440
25548 -15.007426346151654 -2.1493033827821959 10.940596425172028 35 35 9 0.46399145100569267 7 543 10 321 3 368
7428 9.3490782450875685 2.2547920987086694 9.5879262038517794 237 231 224 0.7965221694973319 31 2353 33 4197 29 2330 27 9193
11974 6.7627375752871677 2.513542245635334 8.6499147063958439 212 209 201 0.33317578901324896 32 5509 26 6383 37 8144
9617 9.0039723906600102 -2.5853815972122063 14.360586664913001 21 40 18 1.0884230193489781 28 522 33 492 34 471 27 719
4861 11.548163464286102 1.8247206328688992 11.626919833613133 190 188 180 1.2669547596624717 31 5253 34 5600 36 3820 26 9876 24 9357
25614 -8.006949671411892 2.1157200514114227 10.793835185611185 156 82 90 1.5941621013465936 13 408 12 532 12 2902 1 3260 6 2374 4 687 3 710 14 1704
11962 1.5231912539958767 2.249213786240142 11.073539945590761 89 77 57 1.3286888399905572 27 9227 26 6319 25 6271
9605 10.154777404011638 2.2929382587534515 9.0492133802897321 227 226 219 2.5535198146828657 29 370 27 598 26 1002
7015 11.221602067488023 2.2327037442465176 9.7783418984060173 193 192 185 0.7255234237287389 29 924 33 1024 28 1155 27 1075 26 987
12102 5.638744502149426 -0.010830353519220823 4.0944182497579851 32 21 19 2.6268835507006845 29 2381 26 8117
9745 2.9124975300124993 -1.477797713085383 10.195025853025298 143 193 66 1.5284454068751478 28 2395 27 2091 15 4754 21 3874 12 2012 8 2039 11 1863
11798 1.8838483978673148 1.6766202763455185 13.51519274844717 65 52 42 0.74406454098081409 36 6058 26 4778 25 4699 37 4671
3949 4.2865064865419997 -0.66119695661549727 13.053618854897948 98 72 60 0.89832041712964872 30 1210 31 1206 35 1627 34 1780 29 1150 33 1725
24702 -13.848785903691439 -3.9581900359521289 11.769230446340277 116 165 61 0.63932348134683237 10 819 1 899 6 862
9441 0.64291320811654451 1.0913061817417233 14.550554389084361 65 57 46 0.2690545691076221 36 8739 28 10386
7820 8.8215669889367305 -3.3756537203298485 14.932570391747548 22 46 3 0.56654423530858689 30 7475 33 7263 28 6355
12907 3.3611760281038436 -1.6418726946858611 9.5570789250473211 121 173 75 0.73249848418328312 26 7384 25 5102 23 5787 21 2078 20 4250 19 3915 18 3275 16 3449 15 4654 13 2528
11825 12.879267765633708 1.2379093234627865 15.301307332863011 50 40 43 0.37962220550253073 33 4068 34 6200 26 5011
9468 12.243264470344799 1.2697534227630616 15.885145229848559 43 30 27 2.0363885238834003 36 5647 28 10572 30 7752 31 8561 35 5351 35 5346 32 5075 32 8026 37 3502 37 4762
11407 6.6049266213061637 2.5833216823428802 8.4499592514709221 194 192 185 0.83987549410730622 27 1013 26 965 25 913 37 516
4796 9.8248310364728848 -3.3141306630554475 12.942848932991005 134 172 114 1.3681478816891555 29 4160 34 5285 30 6606 34 10378 35 7837 33 6241 28 8796 28 8826 27 8655 27 8689 32 6738 26 5688 25 7571 37 2813 37 3592 24 7429 23 5846
25549 -2.6214437832873707 2.5396280718755992 9.7128545156810269 0 0 0 2.3680257612498408 13 704 18 213
7429 1.5361508069919569 1.9143708577700504 12.786307044793695 62 39 28 1.0436343045477554 29 6042 30 3740 34 4385 35 3693 36 3805 33 4218 31 6334 28 4407 27 3977 32 5141 26 3605 37 4595 24 3318
4667 2.8101297162851568 0.17585653739698781 12.860367823212188 168 154 129 1.1976896858500496 21 3032 34 4733 37 4571 25 4934 18 2502 17 2469 16 2443 15 3752 14 1913 13 2331 12 2011 8 953 11 1881 9 747
25420 -4.333453209490771 2.3823354261648597 8.9653892501942707 145 143 144 0.52612318119808421 2 3044 11 2571 6 3760 3 3075
10159 4.8302826452880421 -1.8741089086931386 10.776214975777702 118 131 36 0.55484426728655079 28 5834 27 6142 26 2898
11975 3.637391816233134 2.4487728899524286 9.5376951334495956 196 198 193 1.2668065476088139 28 9603 26 6385 25 9559
9618 5.198444938121054 -1.4646053480122083 6.9437944244495275 255 244 220 1.4644372854436374 33 1955 27 732
11181 10.450207700408134 -1.6877451611181529 13.552526621604516 23 52 13 1.195145150966588 36 2018 28 2312 27 4526 32 3022 29 2851 31 8811 34 9672 36 7724 28 5238 27 5202 25 1850 23 1398 20 1267 17 1825
11211 9.6629561949666911 -3.6793806726237528 13.862120380615611 122 162 100 1.8532335238812221 28 9052 33 7556 27 8943 34 8818 35 7770 32 6556 34 8676 36 7594 29 6837 31 6857 37 6177
11799 9.0233113514359164 2.429539514876633 9.085308291592332 254 253 249 1.0628213710852841 36 6795 26 4783 25 6367 32 4016 24 8924 28 9906
9442 10.48947642444366 1.7460345026299879 14.329552081877946 69 54 52 1.9633435776213812 29 5572 36 8963 28 10396 32 5192 30 8039 36 8947 37 6972
7821 3.3772765997654313 -2.1017253076218489 9.7014180848675 53 88 24 0.68888924986910105 30 7534 31 7795 33 7279 36 4737 27 5736 25 7275 24 7622
12908 1.6045202060435344 -1.9713970944428338 10.859620788939196 23 51 0 0.81956631017695802 27 5707 25 5107 24 5518 23 5566
10551 4.3524845038864717 2.5413080117826095 8.8495876010908017 226 226 221 0.40335387728732242 31 9700 27 9607
11826 12.429760994481468 1.2300322826221999 15.58320425659864 45 31 26 1.3455905314674523 29 4007 32 5053 26 5012 31 1627 30 1646 25 8491 23 3056 22 6331 20 2966 17 2649
9469 1.2745841583883604 0.78302329052375907 14.882501727411858 152 147 133 0.68034573285307809 36 9346 28 10574 27 10180
11976 8.2617989187320493 2.4459587793888939 9.0519540799897644 198 192 185 1.0811795303357372 28 6883 32 5504 26 6387 37 4123 23 7212
9619 5.9076966452585324 -1.886559014985939 8.4069118465911767 238 227 139 0.75205460552366343 34 812 27 739
11506 11.430620289014517 -1.4571662742301559 12.92852624257287 211 202 145 0.66403113785891688 21 1605 33 2672 34 1319 26 1899 25 1840 23 2070
7528 1.39966067568121 -2.3540704178999663 10.271689898843833 53 70 20 1.5079620054637741 34 8966 35 7807 33 5014 30 6558
12615 2.3134259868064704 -2.6464365588146483 8.1279808658172232 190 249 100 1.1987196454109434 33 1901 34 1935 25 1680 24 1173 21 1254 22 1190 20 1513
4766 10.660146053400503 -4.0557946722896689 13.566064965032416 45 79 26 1.0631066669944909 31 9434 35 4700 34 5143 30 4980 29 4851 36 5109 32 3237
25519 -7.0680970162620014 2.8453807757910385 6.7894121839093939 204 205 200 3.4839657061890468 7 644 1 640 2 589 6 663 4 622 7 1508 1 1494 2 1512 6 1951 4 1683 3 642 3 1889
10258 3.5036708851767888 1.958963896400564 13.045449854179763 79 63 56 0.81761521272035276 36 5891 27 6757
11195 1.7233333988557702 2.3164610976678235 10.403997385602928 184 184 179 2.287012734715522 30 4921 31 4997 35 4010 29 5136 34 7322 36 4804 33 4209 28 6784 27 5968 32 5582 30 3880 31 3984 35 6522 29 5140 36 7850 33 4189 27 4293 32 3416 26 3729 26 3735 25 3667 25 6413 37 4235 24 3663 24 6194 23 3635 23 7832 22 3440 22 7392 16 3729 15 5957 14 1700 12 1381
11194 10.5854672453252 -1.6289851619702334 13.600264758258691 57 87 46 1.2385058148989267 30 6491 31 8822 35 8817 34 6721 29 7221 33 7754 27 8092 32 3045 36 2928 28 5200 26 8528 25 8571 37 1428 37 5118 24 8442 22 2835 20 4398
11782 0.80553394326275884 -2.4699019120682912 8.3918616061675237 29 57 0 1.6037203968350582 30 6863 34 7987 35 4626 26 4618 25 2656
9425 2.020603092558614 -0.17125277619342899 11.203075129624638 166 163 153 1.2556231757275937 34 9294 28 10188 27 5843 25 4313 34 4679
7804 13.550391455575841 -1.7718101901351635 13.31208577545504 174 151 131 0.96626546516613043 29 3257 34 4475 33 7086 26 5262 25 5154 27 4847
12891 4.9362770429877454 0.27752272208068779 12.891585152681142 86 68 50 0.58129504907609975 31 5624 25 4943
11809 9.7966286291447542 2.3366574823641506 9.4763055250390842 242 237 235 0.52038406359477463 33 4211 26 4883 25 9254
9452 1.2500614309232416 0.88093316040182978 10.54275625696796 247 214 187 0.9411681606315534 33 9425 34 10795 28 10452 26 5140 25 4705
11959 7.2365930990477212 2.5224492475812896 8.7834574221061885 159 153 145 1.2455037636273063 28 4648 29 4964 31 6457 32 5547 36 7961 26 6299 25 9190 37 5405 30 6339 24 8750 23 7280 22 4648 20 7306
9602 1.3831701825372316 0.90135403088518051 11.081854356603511 43 23 16 1.5085276628255981 28 257 27 589 26 945
25610 -2.6976738393843602 -0.38061162570172336 9.23208352468043 227 217 208 2.6451373399440086 1 2108 8 2133 2 1547 3 1582 22 715 20 757 12 280 11 310 10 428 9 253 7 289 1 248 2 218 6 242 4 228
4857 6.1517512592289663 1.9340332238692552 11.685591474557667 199 194 182 1.0813764408397235 30 9246 31 9735 34 5586 36 10223 33 7840 28 9239 32 7866 25 10105 37 7329 23 7566
11468 12.912316614091239 0.11340208418680658 15.239766678354986 97 85 66 0.70640248030104735 27 2715 28 1903 26 1530 25 1493 24 757
6998 4.2943750613262832 -2.7738076515654857 8.5274010909637656 54 78 23 1.2344539699158004 34 517 35 519 33 938 26 534 25 474 24 718
12085 12.663789928218863 0.65958719784933906 17.414519915984137 111 99 92 1.2479807088459953 31 8366 36 9453 26 7935 30 5202 32 5387 16 4978
9728 9.7503961530843846 -3.5264243452692314 10.588795091263663 63 106 39 1.3904884378198716 28 1681 33 1399 34 1458 27 1893 26 1734 25 1676 24 1147
11192 10.16562567792889 1.810610092175009 12.395434723050966 166 144 133 1.2380842893406214 31 1447 35 1450 29 1391 36 1489 32 1436 35 7624 27 9313
6997 3.12598466217396 -2.6796531835604909 8.6695400404003795 173 224 100 0.81007982146180102 34 957 35 1806 33 933 30 1774 31 1774
12084 3.922204056448312 -2.1399342870009654 9.5815383419815507 202 199 137 1.0651180423075486 27 5775 26 7907 25 7798
9727 11.480970996063931 -3.5476511422038093 10.561814005990833 133 163 89 1.7481036397597027 28 1649 33 1422 34 1451 27 1887 26 1717
10221 10.764760503371491 1.0647521372281399 16.036842463379511 45 31 27 0.52522887486601177 28 7061 31 5941 33 6885 35 5142 27 6461 29 5657 30 5274 36 5836 32 5029 25 8388 37 4701 24 8208 23 6483
25482 -2.0105956674408128 0.092733835443982685 1.978670253344426 0 0 0 2.4731194654916973 8 948 16 4410
11957 9.7495487774008556 2.4053460798287514 8.8863559384310111 233 229 223 1.4282456076840233 29 5171 30 3832 31 3811 26 6286
9600 1.4448112298813462 -2.2517292084129275 10.102610828351034 15 45 1 1.7371981144233737 28 471 27 557 26 482 8 485 11 550
11190 5.4377626073883389 -2.3246488991085061 8.2840081606745954 105 142 78 1.1712850961445864 33 8725 36 7361 28 8503 31 7169 32 6910 31 7175 33 8646 25 6720
25607 -8.4289129310247759 0.29046932188897978 11.475945756399424 91 57 47 1.8859536295318879 14 2993 13 2330 12 1919 11 1692 9 859 7 2122 1 2053 2 3666 6 2119 4 2022 3 3173 14 2782 11 2931 9 2034 7 3436 2 3142 6 3386 4 3168
4854 8.8458701701861795 1.9003059044901724 11.773112326396907 210 204 195 0.78189581543859754 29 6046 34 5578 33 9313 27 9502 32 5344 24 9272
3929 2.8248959128746125 -0.34542212152719509 12.618329540694507 151 125 100 0.71292227240876804 29 1165 30 1228 31 1579 35 1641 34 1725 36 1646 33 1701 28 1978 27 1702 32 1761 26 1536 25 1521 37 1312 24 1492 21 1559 23 1216 19 1238 17 1425 16 1329 15 1271 14 1235 12 904
24682 -14.042606014807447 -2.7958874415486203 13.253432096549853 67 57 36 0.53325153578285989 9 600 1 754 2 681
9421 3.3070904550904006 0.040328395317581832 14.565110463605869 53 37 33 0.95349216153154048 36 9079 28 10147 32 5260
