# 3D point list with one line of data per point:
#   POINT3D_ID, X, Y, Z, R, G, B, ERROR, TRACK[] as (IMAGE_ID, POINT2D_IDX)
# Number of points: 300, mean track length: 8.9892346608624045
21927 -8.3620236920613351 4.1900938104953553 6.8112366505520239 106 102 92 0.40251096837099259 20 1866 16 1106 10 2036 2 1335
6468 12.908363756030756 1.0623096051633416 17.389466282989634 130 126 118 0.3876950456229698 29 2952 30 3072 35 2640 37 5152 41 2439
16741 -4.9103872111638998 3.7789815744388444 9.56599782991068 105 101 91 0.70460138956855478 22 1596 23 1774 21 1387 18 2756 12 1940 10 3286 9 3625 5 2444 1 1066 3 1070
6470 13.996049860800515 0.58852996294306381 16.425809557099054 73 69 59 0.8243151034558488 31 4704 32 2978 33 5303 35 2646 36 4031 41 5591
1384 7.2753330839810788 2.9306589212514287 11.180167554402791 132 109 108 1.3863101381193399 28 4974 30 5689 29 5344 33 6005 27 4696 25 2269
6471 14.035638355265858 0.47859792024756559 16.436929537887789 50 46 36 0.31584183029863294 31 5400 32 2987 33 4282 35 2652 34 2458 36 2744 39 4943 37 4854 38 5128 41 5520 42 5748 40 5473
6473 -2.8777270334755212 1.3392887675887375 28.66037007346333 43 42 30 0.66309968999636926 31 3494 33 6815 35 2661 34 2572
6474 1.8437157456856441 1.1686244122718066 24.888627161112577 106 104 63 1.6777034923115011 28 2705 35 2667 34 2551 32 2965 35 1276 36 2953 39 2292 37 4579
1388 1.5031107251016351 3.1665907908075543 12.294002622338045 106 105 98 0.29599269068048639 29 5289 30 5697 27 5437
21934 4.5451787183461221 3.7180213294460782 13.581818845744442 0 0 0 0.8557998989033021 19 3934 23 5452
6475 6.9766646328436357 -3.7941983040305378 22.273965613718723 41 40 33 0.52166683352465315 28 2469 29 3118 30 3136 35 2687 34 2022 36 1611 39 1556 37 1559 38 1601 41 1773 42 1770 40 1712 27 2451 25 3213 26 2450 24 2410 22 2474 23 3333 21 2247 20 1718 19 2016 16 1872
16748 0.48495876888444173 3.5276623879757434 9.7264563592632083 85 81 75 0.88032435049657209 22 999 23 1790 21 985 16 1072 10 1670 13 1313 7 2046
22144 -4.7744222316529292 3.9654745141726613 8.6470714185037085 109 105 97 0.26991349728232511 18 3559 10 1840 1 2730
1391 6.5163041221351961 2.9964194379344655 11.182323087124104 89 88 81 0.34462170716891766 28 3244 30 5701 29 1502 27 2660 25 2232 26 4689
6478 7.2800636292938021 -2.9571137339308775 22.719376913337097 177 176 169 0.55838774972404615 28 3446 29 3539 30 3340 35 2708 34 3367 36 2283 27 3216 25 3185 26 3178 24 3221 22 3107 23 3774 20 3081 16 1883
6479 10.447889082896873 -2.6899521749048239 20.324209948137444 187 188 180 0.35900199866582183 28 3120 29 3677 35 2710 24 3173 22 3118
16752 -1.6355135281385302 3.6748152946100316 9.5918111368758332 112 111 102 0.86287955861950316 14 3428 22 4862 23 1800 21 2904 19 1387 15 3534 13 3109 12 3849 11 1530 7 1552 9 1992 6 3232 9 2983 8 3251 5 1414 4 1452 2 2801 1 2663 3 2352
1393 4.4624278823237233 3.084861892290482 11.604160843868563 138 137 130 0.42990937263760748 28 3282 29 5669 30 5704 27 1625 25 4389 26 2978 24 3013 22 2228 23 3967 21 2011
6480 6.6795366992605825 -2.1436077896363175 21.136621974825207 207 206 199 1.1196797618479268 28 2711 29 3617 30 2762 35 2720 34 1453 36 1586 39 3534 38 1315 41 4853 42 5028 40 4464 27 3158 25 1549 26 5456 24 2390 22 2560 23 3489 21 2423 20 3041 19 3695 16 1002 20 3043
6482 10.497042029103355 1.295260927036646 19.040841679995001 95 93 93 1.1241826912031063 28 4570 32 1356 35 2731 34 2496 36 2843 42 5109 25 2656
16755 -6.663835241320978 4.0529540878935837 9.4286846289053781 146 143 128 0.6736248460418216 22 1623 23 1810 21 5024
21942 -0.15273671921742726 3.6667970064794324 8.9507024839775173 131 130 123 0.93186755125445841 21 4910 16 1380 10 2986 7 3514
6483 10.714369531401365 -2.8797913447085706 20.339180585129455 221 219 215 1.3782581086735481 30 3626 33 3854 35 2732 40 4355 28 3422 25 3191
16756 -5.3543236475992382 3.8205932581318311 9.2190003577564923 125 121 113 0.84474380475180944 22 2914 23 1812 21 1265 20 1149 19 1481 18 1211 17 1158 15 1180 13 1124 12 1975 16 2223 10 3279 6 1266 8 1223 1 1591 3 1555
1398 1.6628220919429657 3.1840219651146495 12.047124624527681 101 100 93 0.34355987010295186 28 5012 30 5713 25 4464
6485 7.7236654257592443 -6.5618272212040925 21.656528725299619 156 155 144 0.64057585601998746 28 3540 35 2760 34 3338 36 2134 39 3715 38 3301 41 3519 16 1898
1400 6.0722774095004048 3.0161952079557075 11.292359817384503 97 96 89 0.28626345877050829 28 5015 30 5715 29 5677 27 3024
21946 -1.2579996922107406 4.0578402281625241 9.9113366996132672 0 0 0 0.22290068359788362 19 4106 23 5311
11673 8.1764605454207846 -2.6610455054348172 20.498633944727441 10 12 7 0.12987707953780897 37 4237 38 4105 41 4827 42 4918 40 4380
6487 8.334872841760987 -6.3481900784867298 21.167455380025597 43 42 31 1.1642452907433514 28 1337 29 3135 30 3097 35 2764 36 2138 39 2943 37 2980 38 3677 41 4251 42 4313 40 3925 27 1286 25 1212 26 1340 24 1278 22 1385 23 1378 21 1195
1401 -0.39966547193441765 3.2339455415759701 12.259831224372913 138 137 126 0.22209469003588592 29 5354 30 5722 24 5285
6488 6.6630019444979798 -2.0339980474151624 21.223346496028313 214 213 206 0.5017281726282139 28 2700 29 3605 30 3663 35 2790 36 5886 39 2632 37 2735 38 3066 41 3147 42 3695 40 2898 27 3193 25 2954 26 2977 24 2396 22 2555 23 3483 21 2415 20 3038 19 2669
16761 4.1793284506571169 2.5073074329873482 16.036540119838843 178 173 159 0.56797004181854172 27 874 23 1822 21 1645 19 865 15 829 13 773
6489 10.559437202904952 -0.4809639088725155 19.238239313753162 67 63 57 1.0463696745014015 28 4064 29 2877 30 2914 32 1290 35 2800 40 3987
6490 11.196955548422542 -0.46096462871640009 18.209538765914605 49 45 39 0.34466899752930508 31 2568 32 2929 35 2802
6493 10.911685525009961 -0.31232609434462577 18.674745208730069 93 89 83 0.36682123534955136 29 4275 30 4391 35 2836 34 2783 36 4189
16766 7.6535350229334513 3.250682592259571 20.216908523031776 161 156 144 2.2539850070127705 42 7105 23 1843 21 1568
22161 -12.615438392494655 2.9930516735252244 9.5719396333388467 181 185 156 1.9665068733646973 15 2415 19 2362 10 2356 7 1858 5 362 4 340 4 2265 3 2157
1408 -1.5339267637233898 3.0028373845240171 14.80309188142189 103 105 90 1.3463801383356782 29 5934 30 5761 28 5578 33 6598 31 5229 31 5892 32 2438 32 4920
21954 -2.4001727878575423 3.8245728534300638 9.3902790767804145 118 117 110 1.8742635708824449 23 5367 10 2029 8 1366 2 1379 1 1301
6495 14.199869144345211 -0.27215430942863955 16.241366262277825 49 45 39 0.32523202933195516 31 1241 32 1309 33 1284 35 2845 34 2834 36 1302 39 2755 37 1384 38 1429 41 3304 42 3412 40 3180
16768 -9.9114924029844751 3.0664699900412433 12.106120297898936 111 138 68 0.98139502352048014 22 1885 23 1858 21 1928 20 1381 14 2378 19 3265 18 2123 17 3390 15 2355 13 2596 12 2940 11 1836 16 1306 10 2745
6496 10.812976712244827 -0.38658022372447753 18.556003058234676 61 57 51 0.23678929843226806 29 2850 30 2906 35 2854
16769 -8.8402431365318588 3.0608928068002874 12.977793760162189 140 155 65 0.21768516216532793 22 1849 23 1866 21 1922
1410 1.8842081132933211 2.9146999021454838 14.255888227867921 127 124 111 0.8395078850661678 29 5776 30 5770 28 174 33 6614 31 5890 35 5124 21 3862 23 4343 20 2706 17 2431
6497 11.141115054277988 -0.37468786921120445 18.466133470708581 63 59 53 0.35251767260690503 28 3079 35 2855 26 3431
16770 4.604387508557517 2.5202939144137653 16.135382749142138 167 162 148 0.066277984033949022 26 998 23 1867 20 1285
1411 2.1983394120642901 2.9074606020604765 14.169109661668701 154 151 138 0.73238700411331692 29 2399 30 5773 33 2497 31 3249 20 2671 21 3832 19 2949 18 3108
6498 6.8879654340809626 -1.9298840779787791 21.40176448958066 62 61 54 1.3271901491930682 30 3652 35 2876 28 3392 29 3649 39 2641 34 2703 36 3527 37 2709 38 3047 41 3197 37 2708 42 3690 42 3691 40 3078 40 3079 27 3177 26 3613 24 3661 22 3182 23 3521 21 1288 23 1526 20 3055 19 2376 16 1938
16771 6.6032507365052995 2.672163502188809 21.225620932184928 0 0 0 1.4270987953601786 22 584 24 1703 41 6639 40 6227 42 2868
22165 -12.315073633861941 -0.54489897036886215 10.646839479873824 188 188 188 1.4117873762315694 20 597 10 2437 5 1966 1 1744 3 2026
1412 -2.9198263626403427 3.0694820975495518 14.952930865948723 96 92 82 0.53650303750985706 28 5579 30 5783 33 2534
6499 10.027130386516841 -1.8458552182164027 20.949778885030732 147 150 140 0.65154149167183528 30 2812 31 2628 33 2760 32 953 28 2682 29 2749 35 2881 42 1700 40 3077 27 2423 25 972 26 2498 24 2404 22 2600 23 1520
22167 -2.4482144512048496 1.0460363884768615 28.866160985600654 103 105 78 1.3510934659760614 28 3819 29 4133 30 4177 10 2513
1414 -3.8972261862830173 2.9619648088355692 14.903453655944501 75 68 34 0.47126302549942861 28 5606 29 5969 30 5788
21960 2.1233079058324282 4.4336228512503855 10.977327420997034 127 126 119 1.6892718492852155 19 3678 20 4254 16 1711
11687 15.376463803317256 -0.45795249553206219 15.428725413876691 55 54 43 0.17335758874685167 32 3447 35 3334 41 4884
6501 5.6980080207227459 -0.68488772420115707 22.380615438871839 78 69 63 0.71063856802090375 14 2220 32 2238 35 2888 36 2987 34 2662 39 2844 37 2866 38 3871 41 3316 42 3864 40 5176 26 3725 27 3642 24 3708 22 3782 23 3619 21 3581 20 2852 19 2532 18 2285
16774 -10.034526530884088 3.0233369445472862 13.248927791776762 86 109 50 0.38865949108644138 22 893 23 1898 21 2526 20 1487
21964 -4.3868113918485108 4.2841446781761796 7.9897639507956439 134 135 127 0.97611762721441286 19 3549 16 1754
11691 16.996555944418215 0.88533715431409921 14.20832126132874 55 52 45 0.87487822542598648 36 4781 37 5254 41 4904
6505 11.521129516795805 -0.6367937184272302 18.537027045110143 110 109 102 0.50119953414040919 28 2651 29 4343 30 2723 35 2894 27 2674
22174 -5.8924963436430016 2.7869992636588088 14.837256823274011 109 101 82 0.70527410150246983 25 1917 29 5399 10 2743
1421 1.0765864124368816 2.8930802890837475 14.376850129731142 170 166 156 0.1664391947235441 29 5930 30 5814 33 6734 35 5121
6508 7.0691606893392063 -0.70794946156390182 21.541252005413341 105 101 97 0.46843045164086072 28 4048 35 2913 36 1280 34 1407 39 1151 37 1215 38 2962 41 3336 42 4801 40 4252 27 3771 25 3061 26 3724 24 2647 22 3827 23 3607 21 2367 20 2879 16 1918
1422 -2.4324571259379413 3.0546566447095462 14.677177841457581 110 106 96 0.33082787949690629 28 5665 30 5818 33 6664 31 5290
6509 13.959542873700116 1.0442459694929762 16.260612251619847 57 54 41 0.3960631145630617 32 1492 33 5148 35 2914 34 2512 36 2949 39 2325 37 4289 38 2139 41 2446 42 5234
16782 -8.8416477978977515 3.398152567285937 9.9545613994738851 166 161 121 0.23148343232423768 14 807 23 1975 21 1831 20 1552 19 1627 18 1377 17 1287 15 1150 13 1243
6511 10.483765226751517 2.5571854886973386 11.195692183069562 122 121 114 0.50024850897060202 31 3340 35 2975 32 1038 35 966 34 2898
16784 3.3088990439953858 4.3872807991050147 22.544711930485185 127 122 108 1.2262834159798424 40 735 41 733 42 750 37 6223 21 3852 20 2713 17 2485
6512 6.9999107335016229 2.7589460256956144 12.642776151286229 84 83 76 0.26204975400186331 29 6126 33 6791 35 2978
6513 3.60229906570002 -0.026590768334564956 23.655594777452936 83 84 76 1.1858452210051511 14 3592 32 2936 35 3003 34 2722 36 1255 39 6039 37 3068 31 4008 38 2295 41 926 41 5666 23 4077 21 3521 12 916
6514 11.535841496889637 2.0189874965247281 18.708209728974843 148 134 123 1.4188416957829588 29 2236 39 908 27 4625
1428 -0.67339261900237635 3.0338067169769434 14.35052654158654 132 129 114 0.54834084153297313 29 5848 30 5836 33 6625 31 3251 32 1841 25 3622
6515 5.5532029730855985 -0.020333281844836924 22.240427096141733 116 111 97 1.9692583986074443 31 2572 32 2943 35 3005 34 2721 34 3822 35 3828 36 3195 39 2911 39 3074 37 3057 38 2281 38 2300 41 6854 42 2574 41 2209 20 1652
16788 -9.4101773411849621 3.1294934266991534 11.414447332967013 94 118 33 0.84080060928504852 14 740 22 867 23 1995
6518 3.3488880372091132 1.6693544481199543 22.801988167423811 66 53 48 2.0494386293787263 31 4665 32 5071 35 3019 34 2429 39 1994 39 2175 36 5006 37 2027 37 2583 38 1161 38 2531 41 1391 41 2914 42 2318 42 2321 40 2776 40 6350 23 3068 18 1609 13 1507 16 157
16791 -0.61314983443169735 3.6438959064811471 9.5980937723726676 97 93 87 1.2516046276055222 22 4945 23 2040 21 4709 18 3625 17 3359 12 3863 11 3374 10 3027 12 3871 7 3725 9 2993 7 3727 6 3174 8 1346 2 2788
6519 13.572166225127756 1.4986119593651397 16.363213858628313 57 53 43 0.39614233510932162 31 1819 32 1878 33 2334 35 3028 34 4447 36 2734 39 4314 37 2132 38 2177 41 5040 42 2507 40 2731
16792 -1.1563147661022191 3.6691118398959435 9.4488380530741107 92 88 82 0.544274609861093 14 1421 23 2052 21 2872 20 3831 19 4192 18 3621 17 3361 15 3426 13 3072 16 2251 9 1479 6 3131 8 3198 2 2811 1 1662 3 2383
6520 -1.3540721814199721 2.3591447426533421 19.283028133026871 103 98 54 0.023044910998108167 31 4219 35 3046
6522 7.0839394804979792 -3.6235359756671182 22.120811535445494 38 36 32 0.60703710793430565 28 2474 29 3572 30 3111 35 3074 34 2029 36 2286 39 3066 37 3602 38 2889 41 3561 42 1778 40 2927 27 2484 25 2288 26 2457 24 2458 22 2465 23 3341 20 946 21 2292 19 2020
16795 2.378633913897787 3.4195681807656872 9.9412603506962931 156 151 148 0.23633083828199256 22 2883 23 2060 21 4564 20 1863 19 4127 18 3799 17 3349 15 3719 13 3212 16 2623
22190 1.005282901798729 3.2986613110118364 11.29889475810846 136 132 124 0.14733476643625937 16 2360 10 3194
1437 5.0252114659036122 2.7993700051202519 13.44482200148342 129 125 115 0.7644850084277619 28 5642 29 5767 30 5856 33 2532 31 3258 35 4830 32 3271 27 5287 22 4077 21 3768
6524 1.8596204443245208 2.6568595068841341 14.998743985251055 173 170 157 0.06699617454911258 32 1645 35 3084
16797 1.5269500879079632 3.5073152447814504 9.84358437050955 94 90 84 0.38373858221340584 14 1006 22 2906 23 2075 21 1530 20 1094 19 1097 18 994 17 975 15 994 13 935 11 966 16 1028
6526 2.1662507257618153 2.8085543716095067 14.750092739125531 161 160 149 0.088441021342840001 32 5226 35 3088 34 2870
16799 9.5141932297849348 3.5711127945172829 19.383346739473833 0 0 0 1.2758409549714997 22 1809 40 1669 41 3935 42 3928
22193 -3.7594092448726313 3.5936534705950205 9.6270725812068978 144 140 132 1.2571049911760139 18 1526 10 3299
1440 -4.7506326500368052 3.1042380010375865 14.94891416878586 53 47 13 0.23719747887459355 28 5600 29 5796 30 5864 25 3598 24 3849
21986 -5.6638489219745942 3.8696470563236471 8.517263668268761 136 132 124 1.7213875268274286 21 4726 16 2269 10 3231 7 2764 5 1107
6527 4.7175382885318786 2.7449894357683009 14.043391747909535 155 151 143 0.32713397265817651 33 6349 35 3092 34 3057
16800 3.7565514316359057 3.3270635036745215 10.076119151888953 87 83 77 0.0771020901903363 24 2788 23 2113 21 4582 22 2896
6528 8.8960130504246404 2.6099486770703821 12.652767971105309 135 133 129 0.3539120556894868 30 5769 35 3096 34 4580
16801 -2.6599442384310996 3.5576011635986782 11.18545941407784 156 150 141 1.2690097761589432 22 2245 23 2123 10 3120
22196 -3.1999972396702678 4.108126775644851 6.9058298669067266 125 123 119 1.0705021862745911 17 845 10 3422 7 3208 2 2971 1 2605
1443 4.4858233362067637 2.960954333504958 12.762708961283231 117 116 107 0.8816632177122411 28 5797 30 5868 29 5988 33 5744 31 3320 32 2455 27 5430 26 5003 24 5239
6530 8.4439317245807164 2.6687148217560734 12.717273875832442 123 119 111 0.39678937102957673 29 5839 30 2426 35 3105
16803 -1.8764322775162774 3.805702337692753 10.254248457127375 123 122 113 1.0492271205154748 22 4967 23 2129 21 1410
6531 7.4829189407387213 2.6732248304627713 12.980005911959859 112 104 98 0.52886934515695994 32 5364 35 3107 34 4598 36 3294
16804 -0.25235653695509513 3.5763285437442058 10.07238933874714 98 94 88 0.17770758405892573 22 3066 23 2132
22198 -1.0006537732436944 3.8090877855596283 8.1325648215896731 137 135 131 0.33747556243115695 18 3287 10 3569 7 3600 5 2732
1445 2.1146908901372146 2.915249550539333 13.970881249974431 114 111 98 1.4059909748231474 28 5632 29 5763 30 5872 33 2521 29 5760 31 3196 31 5208 32 3273 35 2982 35 3001
21991 3.205254700380046 3.9371502858565641 10.407803520456431 107 106 99 1.7131305209067249 19 2201 20 3510 16 2426 20 1155
11718 17.471066360972408 1.7493017651952414 13.383409732871257 16 12 9 0.28149075644859839 39 4643 41 5104 42 5513
6532 10.992966200697882 2.5009921707661622 12.158515795850445 126 125 116 0.46664693010691777 31 2308 35 3128 36 1848
16805 -4.9396436523324754 3.7945987308116695 9.2760688243231844 96 92 84 0.88698534627009773 22 2889 23 2134 21 5285 20 4258 19 4014 18 2790 6 2572 8 2503 2 2355 1 1090 3 1678 3 2831
22199 -4.5354959620617876 4.3124798343980473 7.4467836304816464 83 83 78 2.1767171271135251 19 1167 10 3626 8 1862 7 1478
1446 2.6732420898303522 2.887124048683186 13.848556773946028 124 121 108 0.57824344233682812 29 5764 30 5873 33 6588 31 5203 32 3346 35 2963
6533 12.044236872354636 3.2752287884629352 14.356811680128626 120 119 110 1.2416101887226263 35 3135 41 3994 42 4043
16806 -3.9822963612256719 3.7641270186096922 9.4796969263500088 101 97 91 0.36750966075932406 22 1631 23 2135 20 4280 19 3858 14 2698 18 3656 17 3180 15 2732 13 3085 12 3673 11 2687 10 3238 7 2775 9 3528 6 2531 8 2539 5 2764 4 2399 2 2272 1 2208 3 2761
22200 -1.516385221738517 3.7990709434663463 8.1692158993969919 98 96 92 0.79359086594801143 11 3538 16 1752 10 3630 7 1019 9 984 6 985
1447 0.40549467870092432 2.8272001623381011 15.189415642896151 129 126 111 0.51626209586629246 28 4383 30 5874 32 5342 35 4959 34 4902
6534 8.9800562360259626 2.5919279104890771 12.850910318074028 90 88 84 0.53061443415033616 31 5824 32 2377 35 3138 34 2308 36 3478
16807 -7.5754079166895023 3.9346955343572061 8.8325930319729711 120 116 107 1.0017431275122493 14 2742 23 2136 21 5035 16 2376 6 215 5 185 1 134 3 112
1448 -1.4573797259161108 2.8794242875949889 15.61946454305235 150 147 132 1.247902859536679 28 4302 29 4656 30 5876 28 4297 33 6324 31 5937 32 2431 27 4138 26 3799
6535 10.132046701105615 2.5167848270071929 12.544559990513237 148 147 140 0.4808600090594603 31 5839 33 6360 35 3153 36 3495 39 3434 38 3221
11623 8.3908954262656597 -5.081679840324127 20.957724591084197 67 70 63 0.20361621925014917 37 3814 38 3784 41 4449
22103 3.1482674588196313 3.7758865058519842 11.350771837901574 121 119 115 2.2023701758397713 20 1861 23 5196 16 1026
1350 -2.3988107598005213 3.3524184116601967 12.433341888867716 119 118 107 0.25716182076382138 29 5634 30 5551 28 5026
21896 -9.015845885231256 3.0727014743400605 10.486245007448874 0 0 0 0.82167627961651624 21 4331 23 236
6536 2.5577218788188714 2.733335479414166 14.940318892825498 172 171 160 1.7071950448802351 32 2416 33 6316 35 3158 34 3041 34 3092
16809 -0.38992560780897756 3.6138728180483888 10.088379582005308 104 100 94 0.17022637561928364 22 3075 23 2138 21 2879
22203 -5.7165965796903349 4.1915325444899612 5.8427772671298044 73 71 67 0.99832321961519011 11 3279 13 2950 14 3295 15 3307 10 3693 7 1517 9 2103 6 1874 8 2890 5 1829 4 2747 2 2567 1 2477 3 2498
1450 6.7785001298234606 2.6077774043632336 14.072300400316257 121 117 107 0.37805754985191159 28 4402 30 5878 33 6302 31 5996 22 4142 23 4392
6537 10.931534146524408 2.5167628393235231 11.344211397833066 125 124 117 0.13415694070575745 31 3265 35 3176
16810 -6.8222811818017401 3.9567831286519368 8.9765095374110047 140 136 126 1.4247925003147479 22 2849 23 2143 21 1370 16 651
22204 -7.1955012631396738 4.2246812707493726 5.2188998680268526 88 84 78 0.94837656045863217 11 3297 12 3484 13 2959 14 3313 15 3299 10 3696 6 952 8 2998 5 2723 4 2818 1 2542
1451 -4.8956635813084421 2.9256180013966775 15.874974835513028 23 8 4 0.37502305846590417 28 2344 29 4655 30 5879 27 3879 25 3961 26 3740 24 3955 22 4506 20 2494
6538 10.053531599219108 2.5907437191336555 11.521082731957121 113 112 105 0.24564490800022934 31 3341 35 3181 34 4889
6539 5.3789442312789841 3.0573939041583156 14.056612729866359 110 109 100 1.8274489423854481 32 4912 35 3183 34 4726
22206 -5.9732452306681312 4.4300364328500406 6.5512299072369267 76 74 70 1.7863791694825106 13 2913 10 3720 7 1141
1453 6.6676148540897193 2.6448075267113969 13.939610396440328 115 111 101 0.46354894032010435 28 2456 29 5908 30 5899 33 6298 31 3920 32 2419 35 3082 34 3004 36 3475 39 5604 26 2259 25 3676 24 2277 22 2293 23 4260
21999 -1.2693142118076217 4.2128756118528585 9.0239091134352467 86 85 78 0.44968881581598941 20 1154 16 2547
6540 9.8165590889227978 2.6182711978132898 11.766719592080328 101 100 93 0.25772472730208429 30 6005 32 1800 33 3601 35 3189
6541 10.123677930809366 2.582183773805188 11.576193031166719 158 157 150 0.13424935162656432 31 5101 32 3307 35 3190 33 5834
22001 1.2787315222576867 3.5433721794585993 9.5114441550067852 130 129 122 0.89653156981059468 18 1476 19 4332 16 2585
11728 15.987650118556987 1.5223572024322864 14.746675186419898 56 51 47 1.515033469112911 34 3959 39 2045 41 5197
6542 10.422556762192407 2.4652281260512057 12.499798962295564 128 127 118 0.48993085170050366 31 5973 32 2436 35 3206 34 2982 36 3379 37 3460
16815 -7.5534769740466912 3.9815845182240626 9.077108533055755 121 117 107 0.68515209312205816 22 5025 23 2150 21 5008 20 4331 16 1558
1456 -0.71219244333789089 2.851375673352385 15.615187440288528 93 90 75 0.39388257974790009 28 3770 29 4701 30 5925 33 6304 31 2355 32 2410 35 3161 25 3670
6543 2.7327714088368071 2.8325207521710287 14.386410730741021 133 132 121 0.58729946996216142 31 2312 35 3212 34 1585
16816 -6.7085230091203112 3.9073595935094687 9.1453982264562832 123 119 109 0.30455067806800273 22 1629 23 2151 21 2113 20 2293
1457 -4.4196940222384047 2.8634065529485015 15.665640450908146 27 18 15 2.3110427522657528 28 4334 29 1709 30 5926 27 3596 26 1870 24 1891 22 2092 13 2591 14 2362 12 2954 11 1844 11 2388 16 1309 7 2550 7 2559 7 2563 9 2431 6 1592 6 2124 5 1641 5 2092 4 1577 4 2042 2 1953 1 1912 3 1829
22003 4.4921787703293523 3.7474035771296634 11.537333748569282 101 99 95 2.0919969721757941 23 1459 16 2609 21 2897
11730 7.2084994202443387 1.1468282074747431 21.30427634278352 72 70 66 1.8342343194202568 34 4228 41 5214 42 5137 40 4657 22 5512 23 3881 16 1823 23 3014
6544 9.936122746406383 -1.120632148321157 20.314179696772911 173 174 164 0.77205528069916618 29 2653 30 2712 35 3233 25 1296 32 1541 22 3687
16817 -1.5675320480550932 3.6087513061791263 9.9270506625611272 124 123 114 1.7726177266159802 22 4993 23 2152 21 2085 19 3941 14 1152 15 1104 12 3955
11632 16.887681829841679 0.0079197774837950399 14.309889370206523 100 96 86 0.51835514032931729 39 3840 41 4531 42 4844
6545 12.975945898941964 -0.70219900922681922 17.60048779298366 95 93 89 0.41501774265449065 30 4202 31 3936 33 4368 35 3245 36 3073 39 5477 37 2933 38 3119
16818 3.2117668280962302 3.3027646925614644 10.377689408199863 101 97 91 0.45246486405199676 24 1539 26 1571 23 2153 20 4425 19 2643
6547 6.7381970238558404 -2.10037115686016 21.210322783162948 199 197 191 0.39712640958991818 29 3613 30 3669 35 3252 39 3591 37 4332 38 4258 41 4798 42 5068 40 4460
16820 -2.136668116581697 3.643350140111532 9.7647827354655234 111 110 101 0.31897573120371447 14 3414 22 3065 23 2160 21 2839 20 3701 19 3929 18 3646 15 3521 12 3937 11 2698 16 1526 7 2719 9 3105 8 3162 2 2819 1 2741
22007 -8.099888698293551 3.5893556997996194 11.052014219800775 97 87 66 1.0576489288815212 21 3711 22 5217 22 5086 24 5444 16 2658
11734 17.594996329537235 1.5026716571597514 13.426822924528363 79 75 67 0.52265187491415055 39 4315 41 5236 42 5199
6548 6.6901404109623783 -2.0890099532218476 21.267066551962152 60 59 52 0.41634125115474446 28 3383 29 3611 35 3254 39 3561 37 4330 38 4198 41 4758 42 3575 40 2891
16821 -5.0674853028713365 3.7941908991776212 9.2947802945525861 103 99 91 0.98988698176948675 22 2887 23 2162 21 5275 20 4186 19 265 18 2820 16 1572 10 1935 2 2325
6549 6.9379999864878679 -2.1058365995795802 21.248886261490814 196 194 190 1.1556993819314552 30 3668 35 3259 28 3381 29 3612 33 3799 27 3163 26 2434 23 2778 21 2418 16 1936
16822 -1.0950584926085074 3.5804983707548739 9.8482349235342337 113 112 103 0.53571483110885987 22 1589 23 2163 21 2906 10 2950 7 2741 4 2996
22216 -10.802434720085927 3.4312415370792109 9.0637675634939665 143 165 62 1.0993133714324637 14 408 19 474 12 478 11 479 10 447 14 1316 20 2793 19 1644 15 1363 13 2702 12 4046 11 1749 7 415 6 336 6 3144 8 341 1 325 3 432
1463 -2.1335413276009785 2.955699225228857 15.105235069994171 133 129 119 0.48768862566355597 29 6174 30 5959 33 6706 31 2307
6550 7.1542553808902252 -1.9517829939169495 22.451280216976485 198 197 190 1.9416279261519398 29 2750 30 2811 35 3265 28 2685 36 2661 34 2689 39 2644 37 1259 25 1537 24 817 22 476 23 691 21 460 16 279 20 321 19 233
16823 1.2258399739765158 3.4339988586083026 10.115635361903518 98 94 88 1.0448362761817167 24 2679 23 2165 21 1781 20 3666 17 1419 15 3443 14 3431 13 1437 12 2051 11 3448 11 3457
6551 10.473631801593928 -1.1980188470910837 20.308138651034714 80 80 75 1.2865633300911485 31 2651 33 4415 35 3273 27 3349 26 3599 24 5592 22 2502
16824 -8.5797726460981849 3.8841992415590076 9.46080488915762 74 63 56 1.9958981884095648 14 1219 23 2166 20 2111 15 1133 18 2606 13 1217 10 910 7 1210
22219 -3.031624589894474 3.0131644910813908 15.259689051003541 85 83 68 1.2158645344177925 14 1701 20 236 18 444 17 394 15 847 13 283 13 753 12 318 11 319 10 817 29 548 30 585 28 1422 30 1766 33 552 23 4947 7 448 7 779 9 748 8 520 5 300 4 307 4 835 2 831 1 486 3 465
1466 6.5823488507106713 2.67084698895217 13.952537481051028 126 122 112 0.74183899026739331 28 5589 29 5912 30 5969 33 2425 31 2326 32 2417 35 1665 34 976 27 4075 25 2487
6553 6.607590757156383 -1.4905110717459726 22.367202995306133 53 52 45 0.57731265303878043 28 3942 35 3282 34 3126 36 3645 39 4147 37 2900 41 4958 42 4626 27 2387 25 2042 26 2350 24 2365 22 2577 23 1230 21 2447 20 993 19 956 18 890 17 1773 13 833 16 1450
1467 3.9457687212159169 2.8664604946735861 13.695563417107939 157 154 143 0.46278387299023804 28 1639 29 5766 30 5974 32 4921 27 2285 26 2237 24 2243 22 2255 20 1255 19 1775 18 1257 17 1307
6554 10.329525313203089 -0.45905657695100044 19.431394786361373 25 21 15 0.9763768111286697 30 2921 35 3289 40 5808
16827 -0.073544317763154343 3.5653652367565605 9.7940608248470902 93 89 83 0.71879413591799457 22 2881 23 2172 21 3443 19 4213 18 3567 15 3452 12 3909 11 3402 7 2923 9 3024 6 3136
22221 -3.2682260678515389 3.7798311275342904 8.6401047059041591 104 102 95 2.4200397104834259 15 1033 21 1554 12 1252 10 1347 14 3357 19 1737 18 3629 17 958 17 3375 21 4634 15 3419 12 1245 12 3895 16 1021 23 2303 7 1272 9 3666 6 3234 8 1333 2 2785
1468 -1.093292803298149 2.9234796162854337 15.31595384478682 167 164 149 0.35983400508338287 29 6148 30 5977 33 6405 31 2298
22014 -9.5105829201771321 4.0194562676149754 8.1022799295386712 69 65 46 1.2394071423432345 14 40 20 19 19 22 18 25 17 26 15 26 13 25 12 38 11 40 16 29 14 1260 20 1330 19 1288 18 1509 17 1236 15 1304 13 1401 12 2018 11 1268 10 40 10 1756 7 39 7 1756 9 45 9 1324 6 39 6 1320 8 46 8 1242 8 2355 5 39 5 1702 4 41 4 2384 2 39 2 2252 1 35 1 1167 3 22 3 1614
11741 8.2829764715407688 2.2492495018914989 19.206634394781222 78 69 63 1.185241210896997 37 5873 38 5766 39 4560 41 5328 36 4734
6555 13.46744057196025 -0.50547789363830364 16.676690502594038 82 78 72 1.6697533547055705 30 4215 32 3463 35 3298 34 3151 36 4218 39 4258 38 4024 37 3934 41 4911 40 3049
16828 -3.6100146771670816 3.7414517636380684 9.261555046466956 136 132 126 1.3281105129869184 22 2858 23 2176 21 2890 20 3704
6556 11.574396117628289 -0.51140237416802936 18.153534776527881 49 45 39 0.54551467359260675 28 2480 32 5587 35 3305 34 2642 39 4182
16829 -2.8453710322826646 3.7179773499131867 9.3774712108652629 106 102 96 0.33028599986975665 22 2862 23 2177 21 5218 20 3737 5 3034 4 3063 3 2363
22224 -8.3018375803832853 4.333008497517385 5.7217289185191387 133 129 121 2.7821664025967889 20 1968 19 3713 18 3496 17 3112 15 3184 13 2808 12 3353 11 3139 11 3146 10 1177 14 3161 11 3161 9 3228 8 3181 8 3338 5 3066 5 3086 4 2984 4 3115 3 2902
1471 1.4897576919009223 2.8276577800468026 14.772370798909188 134 131 116 0.40685689538487058 29 5910 30 5984 31 5968
6558 14.280872281698851 -0.52380930064023679 16.086586865039429 50 49 42 0.44523572962366748 31 2604 32 2924 33 1568 35 3309 34 3219 36 3520 39 4229 37 2917 38 3139 41 4882 42 3427 40 3042
16831 1.9016833259347834 3.4638999731870994 10.009356545490432 108 104 98 0.50046711961289747 14 1398 23 2179
22226 -5.3908066420037928 3.6274227862008526 11.070335463297807 152 149 135 1.8229761832433253 27 3034 26 2862 24 2938 22 2219 23 4442 21 2144 20 4096 19 2873 17 2402 10 3427 27 5100 26 4743 24 1456 23 1649 21 4121 20 2096 7 3050 8 2434 5 2291 4 2649 1 2131 3 2659
1473 0.64640950549202203 3.0106486673818602 13.784266816233409 163 162 151 0.12275001954808795 29 6077 30 5988 32 4876
6560 10.947073805147326 -0.38409655390158154 18.630962619753674 74 70 64 0.62822704164562093 29 4303 30 4348 35 3315 34 3686 27 3726 26 3432
16833 4.1478051792608435 3.2830242750944585 10.0679582679511 91 87 81 0.19724772969688228 24 2356 23 2189 21 4587
6562 10.132103347528295 -0.41381159837114911 19.573326533226702 51 45 42 0.63761465159929998 29 4357 30 4351 35 3323 40 1441 22 3778
6565 11.992716130949475 -0.62676725900138563 17.660178395764781 121 120 113 1.5503974113489691 28 4033 29 4338 30 2725 32 3499 35 3345 34 1405 36 3598 39 1204 39 4235 37 3936
16838 -4.3150532556605752 3.8100690470334717 9.3074882835141608 136 132 124 0.12383469184418729 22 4861 23 2203 21 5161
22237 -9.3861430327053128 4.1962409952322091 6.9773626627224781 111 107 99 2.2285576086729892 14 3438 19 1389 18 1459 15 3444 11 3418 10 3224 20 3640 19 4170 12 3974 7 601 9 3554 6 3402 8 2496 8 3365 5 581 4 594 2 2347
1484 2.1445675441303687 2.9719866951333112 13.652911532343531 121 117 107 0.79243872544648519 28 5454 30 6020 33 5831 31 5124 32 1832 25 3773 24 4088
6571 4.6731412376251766 -0.57258782412804865 23.240814339484977 48 46 42 1.6253982946578813 31 3644 35 3375 32 3500 34 3144 36 3369 39 2762 37 2811 38 3019 37 4068 41 4541 42 3537 42 4869 40 3530 21 3576 12 1573
6572 9.6245331776722516 -5.6490785696762842 20.516145408493188 158 159 150 1.1352028967826853 28 3498 35 3395 36 3702 27 3247 26 3192 24 2480
16845 -9.8846919385236891 3.1632094692498671 12.330483558828139 97 117 37 0.32279234293241843 22 3915 23 2226 21 4441
6573 8.9706274013434868 -5.6768704101113503 20.786133451791361 137 138 130 0.37495633984465021 29 3720 30 3767 35 3396 34 3247 39 3662 37 3857 38 3841 41 4271 42 4499 40 4085 27 5500 26 5385 22 3283 23 3704
1488 4.4913553771592705 2.943183577525915 12.884338655480674 126 127 117 0.73728430880742934 28 2320 29 2485 30 6024 33 3524 31 3841 24 5283
6575 9.4200906213426805 -5.3336380110752559 20.707299233562907 153 150 141 0.30009504885120875 33 4082 35 3420 39 3794 37 3896 38 3326 41 4465 42 4542 40 3536 27 3271 22 3309
22242 -0.76422648593916309 1.4368725661981081 22.583789747308103 101 103 64 1.6169138302030399 14 877 20 1009 19 1054 18 2160 29 2930 33 3423 31 4589 27 4968 19 2387 17 2277 15 1707 13 1562 12 1544 11 1572 10 3807 33 5355 31 4635 32 2668 35 2698 34 2548 7 995 9 879 9 3707 6 1748 8 1976 5 1865 5 1874 4 1885 4 1933 2 1554 1 1486 3 2209
1489 1.1762958114703195 3.0442878607789932 13.448435968517328 132 131 122 0.20083328304059439 29 17 30 6025 32 5162 21 3736
6576 8.4261328154007078 -5.4614353979790691 20.957275785414879 33 34 26 0.78650624597446217 33 4001 35 3427 28 3627 30 3759 36 3685 32 3555 39 3078 37 3907 38 3764 41 4424 42 4498 40 3995 26 3220 22 3314 23 5786 21 3171
22243 -3.1556405050286922 2.9061862508955305 16.073680884117849 48 35 29 1.7280933403750056 11 2323 10 2718 28 4482 29 2523 30 2674 33 2472 31 2245 27 3869 24 3958 22 3957 23 4690 21 73 7 2666 9 2284 6 3383 8 1983 8 3053 25 3958 5 2073 5 2202 4 2091 4 2104
1490 -0.98402244250700155 3.0539291736750971 14.185767437166401 148 148 134 1.6559795831704978 29 6227 30 6029 28 5479 33 3588 31 3849 31 3850 32 3882 27 5246 25 1643 26 5406 24 2268 18 3197 9 455 8 2871 5 294 4 324 2 2532
6577 8.5166096362303616 -6.4696458140010931 20.681823029628898 125 123 119 0.45781316984053838 29 3778 30 3809 35 3437 34 3290 40 3870 24 5501 23 3123
16850 -9.8138775625471695 3.1034967431704055 12.7236866933015 95 124 43 0.19953197431391415 22 1978 23 2276 16 2114
6581 7.4060258999517226 -5.7942334095954138 20.831582589472678 70 68 64 0.35250651275552303 31 3512 33 3907 35 3465 34 3261 36 3777 39 3618 37 3727 38 3801 41 4289 42 4320 40 4056
6582 0.052723758501896971 -7.2435140165349932 26.229432591081725 209 209 204 0.79533003047325579 29 5570 35 3484 12 920 14 881
6583 8.2816381106732369 -6.3102137214216185 21.11734076403415 140 139 130 0.45802155119296645 30 3858 35 3489 32 3598 36 3740 34 3334 39 3709 37 2985 38 2762 41 3526 42 3612 40 3127
16856 -7.4945060165275983 3.2265344930081437 12.212099986482846 61 57 51 0.84461220974592544 22 2304 23 2360 21 1952 20 1617 19 3201 17 2817 13 2723 11 3053 10 2849 7 2679 27 1934 9 1559 6 2210 8 2703 5 2525 4 2108 2 2016 1 2325 3 1752
6587 6.9217627894205984 -3.7029760779705949 22.372003372325427 67 65 61 0.68757431845236905 28 3333 29 3851 30 3906 35 3515 34 3363 36 3808 39 3061 37 2757 38 2876 41 3557 42 4199 40 3807 27 3360 26 3077 24 3120 22 3394 21 3237 40 3810 41 4172 20 1999 19 1873
16860 -8.4878329803875321 3.706524103217725 10.701097743050912 115 107 93 0.47871190034243666 22 2146 23 2382 16 1638
22254 -2.045544813332532 2.4758209072033801 18.592627790164627 87 86 40 1.7149202671753361 14 2296 28 1985 33 2237 27 4528 25 3902 26 4365 24 4473 22 4582 10 2361 29 4037 30 2076 31 3104 32 1974 35 1836 25 2718
1501 -1.2295417835379308 3.1726137819649791 14.379701445515272 113 113 99 0.87287434065221348 29 6076 30 6059 33 5852 31 5091 25 3764
6588 9.8406482372234354 -2.5002022287925234 21.100599270743778 148 149 139 0.25293062212633655 31 3370 35 3518 40 6460 41 4814
16861 -8.9681376447683192 3.4624560929427983 9.6565089861528204 104 89 56 0.55490781915900678 14 3018 23 2390 21 1844 20 2613 19 2903 18 3065 17 2462 13 2360 12 2555 11 2831 10 2605 16 2338 7 2524 9 2542 6 2650 8 2661 5 2517 4 2529 2 2382 1 2300 3 2012
6589 7.8417638806299079 -4.6998311272615583 21.894231710449517 153 152 141 0.78846056645851526 33 4038 35 3540 39 3746 36 3873 37 3566 38 3529 41 4416 42 4100 40 3707 23 3659
16862 -8.9068659349021093 3.5121785026832493 9.6561247439415112 96 87 53 0.70784680486261131 14 2936 23 2395 21 2166 20 2161 19 2244 18 3137 17 2447 15 2976 13 2404 12 2578 11 3021 16 2332 10 2549 7 2509 9 2612 6 2679 8 2643 4 2512 2 2368 1 2352 3 1990
6590 12.754827817997981 -4.0280804871855826 18.892955250829182 218 216 212 0.27375652560025315 28 2559 35 3546
6591 6.6998732034748043 -4.5443568735801669 22.703227537556248 234 232 230 0.90095676181074358 28 3572 29 6305 35 3547 38 6164 26 3304 19 2998
16864 6.0415246750269507 2.6744366782100943 13.964059874346955 128 123 111 0.26982821243791194 28 1881 23 2399 21 3754
6593 9.4576594884579688 -4.5569923903802918 20.837168516796126 151 151 143 1.9178993663283634 29 3877 35 3553 38 3532 37 3550 39 3743 41 1859 41 4394 39 1532 42 1726 42 4133
6594 6.8577193837480523 -3.9320574792286282 22.473684906327964 229 227 225 0.51001169922856204 28 5274 29 3870 30 3868 35 3564 34 3411 36 2366 39 3015 37 3654 38 3582 41 4207 42 4234 40 3779 27 2445 25 3210 26 2470 24 2868 22 2916 23 3821 32 3734 20 1720 21 2251 19 2013 18 1682
16867 -8.0203205260069463 3.7771914409205714 10.514266451034285 55 52 25 0.85631805978737641 22 2239 23 2424 21 3414 20 4131 15 2633
22262 -10.616866368236705 3.0784560855348428 12.586073069366508 59 67 36 2.1493772723977234 14 2366 23 1826 20 915 19 803 18 2391 17 1760 15 2413 12 2838 11 2285 10 1513 14 873 20 819 19 847 18 901 17 717 15 1871 13 711 12 1586 11 2269 7 1841
1509 0.35425052424244335 3.0952716704875911 13.572934572536758 125 124 113 0.34789369987914326 29 2495 30 6090 33 3550 25 3726
6596 12.866808865523824 -3.7129757183841217 18.717256983597728 211 209 205 0.3547589931335946 28 3561 35 3572 36 3892 39 3460
1512 6.7603080301886536 2.7593825896486304 12.768594940378039 113 112 105 0.20893384709194143 28 5465 29 5826 30 6097 33 6648 31 5309
6599 14.024531897116256 0.42446086238269731 16.372653989867992 89 85 75 0.28321889709935721 31 3901 32 3078 33 4333 35 3608 34 2470 36 2766 41 2601 42 4964 40 5370
16872 -0.99152208615171067 3.4119608424610455 11.816943869739156 128 124 116 1.1021069687481035 26 2944 23 2461 21 3929
6600 3.9790476892129587 0.74572452258458266 23.584178152418577 84 84 81 1.5843756787483776 31 3902 33 4306 35 3615 32 4053 35 3760 36 4854 38 2144 41 5748 23 4055 21 3695 20 3279 19 2561 18 2204
6602 10.346245452756415 0.52627774603989363 19.272403576326997 70 66 60 0.72399386642574759 29 2846 30 4171 35 3623 34 3594 40 5271
22270 -2.5313335585553931 2.1750908579247215 19.488150703089815 78 74 66 1.938532839179175 29 5064 30 2336 27 4566 19 2704 13 2256 12 3007 11 2500 10 1563 14 900 15 936 13 883 28 4022 14 2405 29 2320 33 2345 31 1947 27 4578 26 4464 22 4278 23 3986 19 2713 15 2523 7 2173 7 2180 9 2904 9 2932 6 2245 6 2251 8 893 8 2307 8 2314 5 2198 4 2169 4 2174 2 2067 1 2058 3 2134
1517 7.1106324393786755 2.7613020727564477 12.808418199032664 98 97 90 0.29846192776912689 28 5458 29 5820 30 6110 33 6634 31 5285 32 3328 34 1595
6604 6.0479019353692003 0.64865743282344812 22.085380971912105 52 48 42 1.4437226296309016 14 2061 35 3629 36 2791 39 2230 39 4837 41 2147 42 1325 42 6029 40 4705 27 843 25 4509 26 724 22 3492 23 2807 20 1789 15 351 16 976
6605 14.283743358803425 0.21469067011435142 16.191926427966308 104 98 89 0.36187345958967304 31 2981 33 4161 35 3632 39 4253 36 3966 37 5048 38 4778 42 5696
16878 -8.1082278773106768 3.4360884070870448 10.875135282969726 140 121 83 0.24491395825281931 14 3010 23 2502 20 2807 19 3335 15 3049 13 2692 11 1747 16 1667
6606 6.3689159310994405 0.41608500721186359 21.949679494644784 52 48 40 0.63561363193500264 29 4124 35 3638 37 2298 38 5039 41 2698 42 6151 27 3503 25 3425 24 5555 21 3703 20 3280 19 2560 17 1972 15 2172 13 1954
16879 -8.6036082285775404 3.3377921537583437 10.835611889256903 170 165 153 0.16258037608118228 22 2359 23 2507 21 5403
22273 -5.7160794799998902 3.7210885929729525 10.287344743550085 136 132 120 1.2125791200632865 14 2530 20 4021 19 746 10 562 26 4936 24 392 23 555 23 5517 8 642
1520 0.042055124273190705 3.0309854992440464 14.025927043933377 173 171 163 0.71834830687381679 29 5823 30 6123 28 5480 33 5839 31 5121 32 4900 19 2905
6607 13.77913272351417 0.20090031582695933 16.601516664892895 91 87 78 0.41330013892319045 31 3870 33 4171 35 3642 39 2923 38 4782 42 2615 40 3549
22274 -7.7940239053011879 2.8902688574374804 12.845687152487107 111 132 38 1.9994760643858744 27 1789 26 1754 24 1780 22 1910 23 2289 21 1914 20 2483 19 3270 18 2156 15 2364 16 2112 10 2736 27 4092 26 2974 24 3859 5 166 4 163 2 1962 1 1372
1521 2.0841312730569315 2.9443399396310528 13.59699232357973 103 99 89 0.29496930885155581 29 5829 30 6124 33 5838 32 4841
6608 13.750093284053584 0.24481659784531293 16.658481259530564 70 66 56 0.93544762259436232 31 3862 32 4147 33 4159 35 3645 30 3987 34 2448 36 3087 37 3049
6609 14.233017949414782 0.17894161181318755 16.179186345669411 39 33 24 0.24050395389741919 31 3869 32 3035 33 3180 35 3646 34 3496 36 3981 39 3995 37 4989 38 4761 41 4892 42 5897 40 5126
16882 -8.5103367790102435 3.2961198153917954 10.587403004092069 181 178 158 0.59500790684875937 14 2787 22 2362 23 2510 21 3813 20 2742 19 3461 18 3151 17 1656 15 2872 13 3263 11 2872
6610 10.044916141954388 0.27920005443558699 18.947624156482863 142 136 129 0.84909880109878499 30 3997 32 1499 35 3647 29 2779 34 272
16883 -8.5673804324062388 3.301629831654517 10.502201701017432 163 164 142 0.38201639377868246 22 2369 23 2511 21 3820 20 2736 19 3467 18 3157 17 2780 13 2665 12 2210
6611 13.873719718922592 0.15636980468273193 16.456478497053695 116 108 99 0.30622672817363628 31 2892 32 3190 33 3184 35 3656 34 3764 36 5954 39 3180
16884 1.434296523882352 3.0999777761064395 12.663944520038054 124 120 112 0.3907786483947957 14 1252 23 2524 19 989
6612 11.463573771326542 0.36017916664347405 18.312243339111461 106 102 92 0.87968695946561681 29 4102 35 3663 34 1099 39 2989
16885 2.8633564483344718 3.0575563182458678 12.680471440350706 115 111 103 0.59267683820722927 26 886 23 2530 16 1213
6615 12.768799217687658 0.2834325002692844 17.465460979360785 69 65 56 0.53062755203253686 30 6293 35 3678 36 4001 39 4873 41 5702
16888 -8.4925148113230975 3.376082462107409 10.45602223402895 145 136 132 0.75213401333818963 22 2326 23 2538 21 3864 20 2817 19 4289 16 1165 10 2681
6616 3.6479712136327995 2.3369311334675751 17.7813916694322 171 168 155 1.7639594531656364 32 1978 35 3690 34 2348 36 2397 39 1613 39 2439 38 3375 41 3957 26 1836 38 1826 41 2124 24 4457 22 4605 23 4665 23 5916 21 5441 20 2549 19 3288 18 2196 13 2621
22284 -9.2371762744273358 3.1442934205375117 11.463408059747906 102 126 40 2.2168202682995739 14 1725 22 1808 23 1997 21 1639 20 1417 15 2935 12 1353 11 2399 10 1986 22 1040 23 1985 21 1584 20 1583 19 1401 18 1771 14 1733 17 2680 15 2912 13 2530 11 3094
1531 7.9779206527395274 2.799286755640499 11.704676967270977 95 93 89 0.40818979070352557 28 5716 30 6181 29 5422 33 5798 31 3072
6618 12.581365253610667 0.67829232330530265 17.642528989435235 109 105 99 1.4061122674080742 29 2681 30 5588 35 3701 34 4786 28 3312 30 4995 36 5394 36 5406 39 4815 41 2681
16891 -6.9885431751424827 3.5928647720865641 11.642551951000941 117 107 103 0.44389387584712131 22 2339 23 2554 21 3472 19 2882 15 3012
6620 7.7644192619936989 2.1222175885502632 17.314859974389165 184 156 134 0.60289799013362599 28 4814 35 3706 42 7375 40 2631 21 1921
16893 -3.9522571182969468 3.6980702767875786 10.013995869822988 111 107 97 1.5906637764763616 22 1673 24 1570 23 2562 21 2095 19 3962 10 1775 16 959
1534 2.8360514371466925 3.1553124994832156 12.158781300729798 112 111 102 0.3378652731916752 28 5192 30 6224 26 5242
6621 -1.2345788282372714 1.1732118482569391 27.765094246052694 128 129 108 1.0342262380236964 32 5553 35 3708 36 5391 5 3180 12 2691
16894 -6.9507741675978485 3.8779818496442346 9.4297997979403405 133 129 119 0.26705185171780194 22 3081 23 2574 19 3041 18 1542 17 1224 13 2420
6624 10.146023437111591 2.5185157591718155 11.856831760810962 114 113 106 1.2425871930033532 31 5244 35 3726 33 6574 36 3284 39 5438
16897 -7.8704055101998582 3.8833246083703767 9.4167252194933493 86 84 72 1.0506737810129587 22 1671 23 2589 20 3978 21 5032 19 3040 17 2586 12 1998 11 1235 16 1225 6 409 3 236
6626 1.0124137549621046 2.5602924757689882 16.971435216205961 166 163 149 0.31250965997804525 32 2540 35 3731 25 4004
6627 13.532201454300223 0.45018065468026125 16.125784539242954 64 60 50 0.92861376356436875 32 2986 33 4278 35 3744 34 3627 36 2746 37 6245 42 2698 40 2530
6628 5.2416891049999901 0.77467345933122311 22.626878862420394 66 65 58 1.4874151010464733 28 3866 35 3747 34 3568 36 4856 39 2199 37 5065 38 4429 38 4513 41 2449 41 6944 42 2397 42 5250 40 2275 40 4684 27 3465 26 3540 24 5635 22 3476 23 4184 23 5838 11 3674
6629 6.7847504282930702 0.76244072825131914 21.715925761214052 87 86 79 0.58515727046723531 28 3849 29 6154 30 4092 35 3751 36 4861 39 5104 37 5252 41 5773 42 5264 40 4795
16902 0.98572618768063314 3.4814417910744382 10.482985046488794 105 101 95 0.74407907904118886 24 1536 23 2613 21 1365 20 1929 17 1450 12 2066
6630 13.694649190348407 0.45777093281409237 16.531537489567384 70 66 58 0.76078753466894611 31 3482 33 4325 35 3752 34 3583 39 4939 41 2626 42 5753 40 5466
6631 13.091222356383344 0.50178195018526084 17.368745754774654 78 74 68 0.17704388274172964 29 4077 30 4093 35 3753
16904 -0.59997865050298416 3.6018022645617167 10.265150120758907 119 115 109 1.4288269277443664 14 3401 22 955 21 1414 21 2971 24 1566 20 2235 18 1562 17 1477 16 1055 16 2186 7 2739 10 1872 9 2964 8 1354 5 2998 4 2979 1 1319
6632 12.950668805914075 0.4966394009876538 17.269437484338319 45 41 33 0.63049245934536091 31 4054 33 3289 35 3754 32 1386 34 3629 36 2748 39 4903 37 4929 38 5203 41 5490 42 6116
16905 -5.9160248767846113 3.7808541908594475 9.8850533182229423 160 157 144 0.14807406190364303 22 3044 24 5100 23 2619
22300 5.2022012948531486 -0.56870926729116311 22.754618503413838 65 64 56 2.3071530818511534 41 4490 42 3517 23 3612 11 1608 32 2237 23 3616 21 2359 35 3308 39 3942 38 4877 41 3356 34 2958 42 5829 40 5190 34 2644 35 2820 36 2980 39 1416 31 3924 33 4387 41 3340 42 3546 23 3565 21 2353 20 2854 18 2128
1547 -1.3856355500281416 2.8576356516699004 15.86753806414251 106 103 88 1.5680581095258239 28 4330 30 2670 29 4614 30 4703 33 1140 31 1545 32 632 27 2830 25 1880 25 3975 26 3765 12 3983 4 2577
22093 5.7717556896732836 2.5981354911872812 15.19670757220401 66 64 58 2.7487366765905232 21 1803 26 2830 22 3872 27 2242 28 1125 29 962 24 2197 23 1993
6634 10.914250191511778 0.55682780554000921 18.894599336581742 55 54 47 0.49502075409314339 28 2938 29 2813 30 4160 35 3763 36 4116 27 2584 26 2538 24 4367
16907 -4.1890835061308911 3.7712035989395396 9.5983075432505363 101 97 88 1.0782673892958996 22 2934 23 2622 21 2060
22301 -10.103800248185694 3.0842454644343595 12.219204864704942 94 124 50 1.6235868905554498 22 637 21 1659 20 906 19 822 14 2384 18 232 21 379 23 592 17 869 13 2600 21 2802 12 219 12 4067 11 287 16 242 10 219 14 2361 21 4191 20 2469 19 2370 18 2408 17 2687 15 2369 13 2607 12 2856 11 2274
1548 2.5892331972721183 3.1592955666483888 12.272366714926614 119 118 109 1.2857813921056251 28 1702 30 1119 29 5295 30 5693 27 1498 26 1446 24 1345 22 1577
6635 12.654150305388965 0.61972953959582167 17.58662597664944 88 84 78 1.3807487575813948 29 2856 30 2702 35 3768 28 3776 34 3727 41 2585
16908 1.8299800849139678 3.3629778208047183 10.610522513082072 131 127 121 1.0901973476194451 24 1601 23 2625 20 2230 21 831
1342 3.8996127746770455 3.020315717597907 12.494161377858818 117 116 107 0.30196945179025392 29 5439 30 5520 33 6161 31 5373 26 5391 24 5253
22095 1.8191879271947893 2.9297099339549577 13.744993025362486 149 145 135 2.1348370483714945 14 1365 22 2299 21 1850 15 3036 11 1320 16 2335 28 5466 29 2360 30 1666 33 6653 31 5277 27 5302 26 5129 24 4018 22 4219 23 4385 19 2932 18 2695 16 2336
6636 10.146711541111262 0.70158159559508759 19.172776204130138 127 122 110 0.42550773736944281 28 4056 29 5595 30 4381 35 3772
16909 -1.2815659487227709 3.5601770071644534 10.201952719716338 133 129 121 1.4792233007958919 22 3014 24 2832 23 2628 21 2114 19 4245 15 2734 16 2513 10 1408 21 974 7 1370 1 1285
6637 13.238399198421492 0.56707755327209264 16.868363889064277 96 92 82 0.77193611669440487 30 4223 32 3798 35 3776 34 3538 36 4043 41 5577 37 5201
16910 -7.1582815880548045 3.8897593009488833 9.3322951302218815 112 108 98 0.45669268689819659 22 4979 23 2629 20 4325 15 2776 13 2418
1344 2.9176941631233753 3.3143020230225395 12.132634443323534 151 150 144 1.0401132031461944 28 5070 29 5650 30 5530 27 4760
22097 -7.7838071622642939 2.5690501218224036 16.550386383561097 91 118 52 1.792134205029505 22 2044 23 2972 21 3437 20 831 19 1017 20 1728 18 903 15 775 13 1490 12 946 16 1249 24 1663 22 1318 23 2971 21 4819 20 3194 10 786 9 1775 6 1563 8 854 5 871 4 892 2 1608 1 790 3 1368
6638 2.8458616770501739 0.98001440834135567 25.418695979120542 167 167 135 1.6114192861276206 31 3813 35 3779 34 3170 39 5165 37 2377 29 546 24 458 23 4197 17 263
16911 -0.34532365896786649 3.5124358767029942 10.307105809167119 105 101 95 0.70285150584058775 22 2990 24 2841 23 2633 21 2163 19 3930 15 3515 11 2692 16 2162 7 2750 6 3191 8 3224 5 2941 4 3046 1 2677
6639 10.197081538723344 0.65340809935754041 19.172716294247387 50 44 35 0.57214377382450698 30 4110 35 3781 29 4353 34 3578
16912 2.2331418483246566 3.3763010858073526 10.628904554359893 136 132 126 0.16318239803204085 24 2823 23 2638 19 4139
1346 1.3938931556286054 3.2694955569805013 12.107613084910465 97 96 89 0.32412240328265945 29 6288 30 5534 28 5875 25 4399
22099 -3.687614914757837 3.7865690501534375 8.9565090200037289 104 101 96 1.9565914291452784 21 880 14 3443 21 4728 19 1670 18 1444 20 1074 19 1121 17 1448 12 3929 11 3439 16 803 23 5366 16 1063 10 2959 23 1047 9 3083 8 3235 5 1422 1 1291 3 1681
